# .PCD v0.7 - Point Cloud Data file format
VERSION 0.7
FIELDS x y z
SIZE 4 4 4
TYPE F F F
COUNT 1 1 1
WIDTH 1591
HEIGHT 1
VIEWPOINT 0 0 0 1 0 0 0
POINTS 1591
DATA ascii
215.90001 -395.85001 -495.29999
215.90001 -397.85001 495.29999
215.90001 -397.85001 -495.29999
215.90001 -148.20001 495.29999
215.90001 -148.20001 -495.29999
215.90001 -150.2 495.29999
215.90001 -150.2 -495.29999
215.90001 150.2 495.29999
215.90001 150.2 -495.29999
215.90001 148.20001 495.29999
215.90001 148.20001 -495.29999
215.90001 397.85001 495.29999
215.90001 397.85001 -495.29999
215.90001 395.85001 495.29999
215.90001 395.85001 -495.29999
215.90001 396.84998 1
215.90001 396.84998 -1
215.90001 -396.84998 1
215.90001 -396.84998 -1
215.90001 396.84998 496.30002
215.90001 396.84998 494.30002
215.90001 -396.84998 496.30002
215.90001 -396.84998 494.30002
215.90001 396.84998 229.59999
215.90001 396.84998 227.59999
215.90001 -396.84998 229.59999
215.90001 -396.84998 227.59999
215.90001 396.84998 -227.59999
215.90001 396.84998 -229.59999
215.90001 -396.84998 -227.59999
215.90001 -396.84998 -229.59999
215.90001 396.84998 -494.30002
215.90001 396.84998 -496.30002
215.90001 -396.84998 -494.30002
215.90001 -396.84998 -496.30002
216.90001 396.84998 495.29999
216.90001 396.84998 -495.29999
216.90001 -396.84998 495.29999
216.90001 -396.84998 -495.29999
214.90001 396.84998 495.29999
214.90001 396.84998 -495.29999
214.90001 -396.84998 495.29999
214.90001 -396.84998 -495.29999
215.90001 -396.51666 165.09999
215.90001 -397.18332 -165.09999
215.90001 -148.86667 165.09999
215.90001 -149.53333 -165.09999
215.90001 149.53333 165.09999
215.90001 148.86667 -165.09999
215.90001 397.18332 165.09999
215.90001 396.51666 -165.09999
215.90001 132.28333 0.33333337
215.90001 -132.28333 -0.33333337
215.90001 132.28333 495.63336
215.90001 -132.28333 494.96664
215.90001 132.28333 228.93333
215.90001 -132.28333 228.26666
215.90001 132.28333 -228.26666
215.90001 -132.28333 -228.93333
215.90001 132.28333 -494.96664
215.90001 -132.28333 -495.63333
216.90001 132.28333 165.09999
216.90001 -132.28333 -165.09999
214.90001 132.28333 165.09999
214.90001 -132.28333 -165.09999
216.23332 396.84998 165.09999
215.56668 396.84998 -165.09999
216.23332 -396.84998 165.09999
215.56668 -396.84998 -165.09999
216.23332 132.28333 495.29996
215.56668 -132.28333 495.29996
216.23332 132.28333 -495.29996
215.56668 -132.28333 -495.29996
215.90001 -396.84998 0
215.90001 -397.85001 0
215.90001 -149.2 0
215.90001 -150.2 0
215.90001 149.2 0
215.90001 148.20001 0
215.90001 396.84998 0
215.90001 395.85001 0
215.90001 0 0
215.90001 -396.84998 0
215.90001 0 495.29999
215.90001 -396.84998 495.29999
215.90001 0 228.59999
215.90001 -396.84998 228.59999
215.90001 0 -228.59999
215.90001 -396.84998 -228.59999
215.90001 0 -495.29999
215.90001 -396.84998 -495.29999
216.90001 0 0
216.90001 -396.84998 0
214.90001 0 0
214.90001 -396.84998 0
215.90001 396.84998 0
214.90001 396.84998 0
215.90001 -396.84998 0
215.90001 0 495.29999
214.90001 0 495.29999
215.90001 0 -495.29999
214.90001 0 -495.29999
215.90001 -395.85001 0
215.90001 -396.84998 495.29999
215.90001 -396.84998 -495.29999
215.90001 -148.20001 0
215.90001 -149.2 495.29999
215.90001 -149.2 -495.29999
215.90001 150.2 0
215.90001 149.2 495.29999
215.90001 149.2 -495.29999
215.90001 397.85001 0
215.90001 396.84998 495.29999
215.90001 396.84998 -495.29999
215.90001 396.84998 0
215.90001 0 1
215.90001 0 -1
215.90001 396.84998 495.29999
215.90001 0 496.30002
215.90001 0 494.30002
215.90001 396.84998 228.59999
215.90001 0 229.59999
215.90001 0 227.59999
215.90001 396.84998 -228.59999
215.90001 0 -227.59999
215.90001 0 -229.59999
215.90001 396.84998 -495.29999
215.90001 0 -494.30002
215.90001 0 -496.30002
216.90001 396.84998 0
216.90001 0 495.29999
216.90001 0 -495.29999
215.90001 396.84998 495.29999
215.90001 396.84998 -495.29999
215.90001 -396.84998 495.29999
215.90001 -396.84998 -495.29999
215.90001 -396.18332 -165.10001
215.90001 -397.51666 -330.19998
215.90001 -148.53334 -165.10001
215.90001 -149.86667 -330.19998
215.90001 149.86667 -165.10001
215.90001 148.53334 -330.19998
215.90001 397.51666 -165.10001
215.90001 396.18332 -330.19998
215.90001 264.56665 -0.33333334
215.90001 -264.56665 -0.66666675
215.90001 264.56665 494.96667
215.90001 -264.56665 494.63333
215.90001 264.56665 228.26666
215.90001 -264.56665 227.93332
215.90001 264.56665 -228.93333
215.90001 -264.56665 -229.26668
215.90001 264.56665 -495.63333
215.90001 -264.56665 -495.96667
216.90001 264.56665 -165.10001
216.90001 -264.56665 -330.19998
214.90001 -132.28333 330.19998
214.90001 -264.56665 165.10001
215.56667 396.84998 330.19998
215.23334 396.84998 165.10001
216.56667 -396.84998 -165.10001
215.23334 -396.84998 -330.19998
216.56667 -132.28333 495.29999
215.23334 -264.56665 495.29999
215.56667 264.56665 -495.29999
215.23334 132.28333 -495.29999
215.90001 -396.18332 330.19998
215.90001 -397.18332 330.19998
215.90001 -396.51669 -330.19998
215.90001 -397.51666 165.10001
215.90001 -148.53334 330.19998
215.90001 -149.53333 330.19998
215.90001 -148.86667 -330.19998
215.90001 -149.86667 165.10001
215.90001 149.86667 330.19998
215.90001 148.86667 330.19998
215.90001 149.53333 -330.19998
215.90001 148.53334 165.10001
215.90001 397.51666 330.19998
215.90001 396.51669 330.19998
215.90001 397.18332 -330.19998
215.90001 396.18332 165.10001
215.90001 264.56665 0.66666675
215.90001 -132.28333 0.66666675
215.90001 132.28333 -0.66666675
215.90001 -264.56665 0.33333334
215.90001 264.56665 495.96667
215.90001 -132.28333 495.96667
215.90001 132.28333 494.63333
215.90001 -264.56665 495.63333
215.90001 264.56665 229.26668
215.90001 -132.28333 229.26668
215.90001 132.28333 227.93332
215.90001 -264.56665 228.93333
215.90001 264.56665 -227.93332
215.90001 -132.28333 -227.93332
215.90001 132.28333 -229.26668
215.90001 -264.56665 -228.26666
215.90001 264.56665 -494.63333
215.90001 -132.28333 -494.63333
215.90001 132.28333 -495.96667
215.90001 -264.56665 -494.96667
216.90001 264.56665 330.19998
216.90001 -132.28333 330.19998
216.90001 132.28333 -330.19998
216.90001 -264.56665 165.10001
214.90001 264.56665 330.19998
214.90001 264.56665 -165.10001
214.90001 132.28333 -330.19998
214.90001 -264.56665 -330.19998
216.56667 396.84998 330.19998
216.56667 396.84998 -165.10001
216.23334 396.84998 -330.19998
215.23334 396.84998 -330.19998
216.56667 -396.84998 330.19998
215.56667 -396.84998 330.19998
216.23334 -396.84998 -330.19998
215.23334 -396.84998 165.10001
216.56667 264.56665 495.29999
215.56667 264.56665 495.29999
216.23334 -264.56665 495.29999
215.23334 132.28333 495.29999
216.56667 264.56665 -495.29999
216.56667 -132.28333 -495.29999
216.23334 -264.56665 -495.29999
215.23334 -264.56665 -495.29999
215.90001 -396.68335 82.549995
215.90001 -397.51666 -82.549995
215.90001 -149.03334 82.549995
215.90001 -149.86667 -82.549995
215.90001 149.36667 82.549995
215.90001 148.53334 -82.549995
215.90001 397.01663 82.549995
215.90001 396.18332 -82.549995
215.90001 66.141663 0.16666669
215.90001 -264.56665 -0.16666669
215.90001 66.141663 495.46667
215.90001 -264.56665 495.13333
215.90001 66.141663 228.76666
215.90001 -264.56665 228.43332
215.90001 66.141663 -228.43332
215.90001 -264.56665 -228.76666
215.90001 66.141663 -495.13333
215.90001 -264.56665 -495.46664
216.90001 66.141663 82.549995
216.90001 -264.56665 -82.549995
214.90001 66.141663 82.549995
214.90001 -264.56665 -82.549995
216.06667 396.84998 82.549995
215.23334 396.84998 -82.549995
216.06667 -396.84998 82.549995
215.23334 -396.84998 -82.549995
216.06667 66.141663 495.29999
215.23334 -66.141663 495.29999
216.06667 66.141663 -495.29999
215.23334 -66.141663 -495.29999
215.90001 -396.18332 82.549995
215.90001 -396.68335 330.19998
215.90001 -397.01663 -330.19998
215.90001 -397.01663 -82.549995
215.90001 -148.53334 82.549995
215.90001 -149.03334 330.19998
215.90001 -149.36667 -330.19998
215.90001 -149.36667 -82.549995
215.90001 149.86667 82.549995
215.90001 149.36667 330.19998
215.90001 149.03334 -330.19998
215.90001 149.03334 -82.549995
215.90001 397.51666 82.549995
215.90001 397.01663 330.19998
215.90001 396.68335 -330.19998
215.90001 396.68335 -82.549995
215.90001 264.56665 0.16666669
215.90001 66.141663 0.66666675
215.90001 -66.141663 -0.66666675
215.90001 -66.141663 -0.16666669
215.90001 264.56665 495.46667
215.90001 66.141663 495.96667
215.90001 -66.141663 494.63333
215.90001 -66.141663 495.13333
215.90001 264.56665 228.76666
215.90001 66.141663 229.26668
215.90001 -66.141663 227.93332
215.90001 -66.141663 228.43332
215.90001 264.56665 -228.43332
215.90001 66.141663 -227.93332
215.90001 -66.141663 -229.26668
215.90001 -66.141663 -228.76666
215.90001 264.56665 -495.13333
215.90001 66.141663 -494.63333
215.90001 -66.141663 -495.96667
215.90001 -66.141663 -495.46664
216.90001 264.56665 82.549995
216.90001 66.141663 330.19998
216.90001 -66.141663 -330.19998
216.90001 -66.141663 -82.549995
214.90001 66.141663 330.19998
214.90001 264.56665 82.549995
214.90001 -66.141663 -82.549995
214.90001 -66.141663 -330.19998
216.06667 396.84998 330.19998
216.56667 396.84998 82.549995
215.73335 396.84998 -82.549995
215.73335 396.84998 -330.19998
216.56667 -396.84998 82.549995
216.06667 -396.84998 330.19998
215.73335 -396.84998 -330.19998
215.73335 -396.84998 -82.549995
216.56667 66.141663 495.29999
216.06667 264.56665 495.29999
215.73335 -264.56665 495.29999
215.73335 -66.141663 495.29999
216.06667 264.56665 -495.29999
216.56667 66.141663 -495.29999
215.73335 -66.141663 -495.29999
215.73335 -264.56665 -495.29999
215.90001 -397.35001 247.64999
215.90001 -396.35001 -247.64999
215.90001 -397.85001 247.64999
215.90001 -397.85001 -247.64999
215.90001 -149.69998 247.64999
215.90001 -148.7 -247.64999
215.90001 -150.2 247.64999
215.90001 -150.2 -247.64999
215.90001 148.7 247.64999
215.90001 149.69998 -247.64999
215.90001 148.20001 247.64999
215.90001 148.20001 -247.64999
215.90001 396.35001 247.64999
215.90001 397.35001 -247.64999
215.90001 395.85001 247.64999
215.90001 395.85001 -247.64999
215.90001 -198.42499 0.5
215.90001 198.42499 -0.5
215.90001 -396.84998 0.5
215.90001 -396.84998 -0.5
215.90001 -198.42499 495.80002
215.90001 198.42499 494.79999
215.90001 -396.84998 495.80002
215.90001 -396.84998 494.79999
215.90001 -198.42499 229.09999
215.90001 198.42499 228.10001
215.90001 -396.84998 229.09999
215.90001 -396.84998 228.10001
215.90001 -198.42499 -228.10001
215.90001 198.42499 -229.09999
215.90001 -396.84998 -228.10001
215.90001 -396.84998 -229.09999
215.90001 -198.42499 -494.79999
215.90001 198.42499 -495.80002
215.90001 -396.84998 -494.79999
215.90001 -396.84998 -495.80002
216.90001 -198.42499 247.64999
216.90001 198.42499 -247.64999
216.90001 -396.84998 247.64999
216.90001 -396.84998 -247.64999
214.90001 198.42499 -247.64999
214.90001 -198.42499 247.64999
214.90001 -396.84998 -247.64999
214.90001 -396.84998 247.64999
216.39999 396.84998 -247.64999
215.40001 396.84998 247.64999
214.90001 396.84998 -247.64999
214.90001 396.84998 247.64999
215.40001 -396.84998 247.64999
216.39999 -396.84998 -247.64999
215.40001 198.42499 495.29999
216.39999 -198.42499 495.29999
214.90001 198.42499 495.29999
214.90001 -198.42499 495.29999
216.39999 -198.42499 -495.29999
215.40001 198.42499 -495.29999
214.90001 -198.42499 -495.29999
214.90001 198.42499 -495.29999
215.90001 -395.85001 -247.64999
215.90001 -395.85001 247.64999
215.90001 -396.35001 495.29999
215.90001 -397.35001 495.29999
215.90001 -397.35001 -495.29999
215.90001 -396.35001 -495.29999
215.90001 -148.20001 -247.64999
215.90001 -148.20001 247.64999
215.90001 -148.7 495.29999
215.90001 -149.69998 495.29999
215.90001 -149.69998 -495.29999
215.90001 -148.7 -495.29999
215.90001 150.2 -247.64999
215.90001 150.2 247.64999
215.90001 149.69998 495.29999
215.90001 148.7 495.29999
215.90001 148.7 -495.29999
215.90001 149.69998 -495.29999
215.90001 397.85001 -247.64999
215.90001 397.85001 247.64999
215.90001 397.35001 495.29999
215.90001 396.35001 495.29999
215.90001 396.35001 -495.29999
215.90001 397.35001 -495.29999
215.90001 396.84998 -0.5
215.90001 396.84998 0.5
215.90001 198.42499 1
215.90001 -198.42499 1
215.90001 -198.42499 -1
215.90001 198.42499 -1
215.90001 396.84998 494.79999
215.90001 396.84998 495.80002
215.90001 198.42499 496.30002
215.90001 -198.42499 496.30002
215.90001 -198.42499 494.30002
215.90001 198.42499 494.30002
215.90001 396.84998 228.10001
215.90001 396.84998 229.09999
215.90001 198.42499 229.59999
215.90001 -198.42499 229.59999
215.90001 -198.42499 227.59999
215.90001 198.42499 227.59999
215.90001 396.84998 -229.09999
215.90001 396.84998 -228.10001
215.90001 198.42499 -227.59999
215.90001 -198.42499 -227.59999
215.90001 -198.42499 -229.59999
215.90001 198.42499 -229.59999
215.90001 396.84998 -495.80002
215.90001 396.84998 -494.79999
215.90001 198.42499 -494.30002
215.90001 -198.42499 -494.30002
215.90001 -198.42499 -496.30002
215.90001 198.42499 -496.30002
216.90001 396.84998 -247.64999
216.90001 396.84998 247.64999
216.90001 198.42499 495.29999
216.90001 -198.42499 495.29999
216.90001 -198.42499 -495.29999
216.90001 198.42499 -495.29999
215.40001 396.84998 495.29999
216.39999 396.84998 495.29999
216.39999 396.84998 -495.29999
215.40001 396.84998 -495.29999
216.39999 -396.84998 495.29999
215.40001 -396.84998 495.29999
215.40001 -396.84998 -495.29999
216.39999 -396.84998 -495.29999
215.90001 -396.51666 -82.550003
215.90001 -397.68332 -165.09999
215.90001 -148.86667 -82.550003
215.90001 -150.03333 -165.09999
215.90001 149.53333 -82.550003
215.90001 148.36667 -165.09999
215.90001 397.18332 -82.550003
215.90001 396.01666 -165.09999
215.90001 132.28333 -0.16666667
215.90001 -330.70831 -0.33333337
215.90001 132.28333 495.13333
215.90001 -330.70831 494.96664
215.90001 132.28333 228.43332
215.90001 -330.70831 228.26666
215.90001 132.28333 -228.76666
215.90001 -330.70831 -228.93333
215.90001 132.28333 -495.46664
215.90001 -330.70831 -495.63333
216.90001 132.28333 -82.550003
216.90001 -330.70831 -165.09999
214.90001 -66.141663 165.09999
214.90001 -330.70831 82.550003
215.73334 396.84998 165.09999
215.06667 396.84998 82.550003
216.23334 -396.84998 -82.550003
215.06667 -396.84998 -165.09999
216.23334 -66.141663 495.29999
215.06667 -132.28333 495.29999
215.73334 132.28333 -495.29999
215.06667 66.141663 -495.29999
215.90001 -396.01666 165.09999
215.90001 -397.01663 412.75
215.90001 -396.68335 -412.75
215.90001 -397.18332 82.550003
215.90001 -148.36667 165.09999
215.90001 -149.36667 412.75
215.90001 -149.03334 -412.75
215.90001 -149.53333 82.550003
215.90001 150.03333 165.09999
215.90001 149.03334 412.75
215.90001 149.36667 -412.75
215.90001 148.86667 82.550003
215.90001 397.68332 165.09999
215.90001 396.68335 412.75
215.90001 397.01663 -412.75
215.90001 396.51666 82.550003
215.90001 330.70831 0.33333337
215.90001 -66.141663 0.83333337
215.90001 66.141663 -0.83333337
215.90001 -132.28333 0.16666667
215.90001 330.70831 495.63333
215.90001 -66.141663 496.13333
215.90001 66.141663 494.46667
215.90001 -132.28333 495.46664
215.90001 330.70831 228.93333
215.90001 -66.141663 229.43333
215.90001 66.141663 227.76666
215.90001 -132.28333 228.76666
215.90001 330.70831 -228.26666
215.90001 -66.141663 -227.76666
215.90001 66.141663 -229.43333
215.90001 -132.28333 -228.43332
215.90001 330.70831 -494.96664
215.90001 -66.141663 -494.46667
215.90001 66.141663 -496.13333
215.90001 -132.28333 -495.13333
216.90001 330.70831 165.09999
216.90001 -66.141663 412.75
216.90001 66.141663 -412.75
216.90001 -132.28333 82.550003
214.90001 132.28333 412.75
214.90001 330.70831 -82.550003
214.90001 66.141663 -165.09999
214.90001 -132.28333 -412.75
216.23334 396.84998 412.75
216.73334 396.84998 -82.550003
216.06668 396.84998 -165.09999
215.56667 396.84998 -412.75
216.73334 -396.84998 165.09999
215.73334 -396.84998 412.75
216.06668 -396.84998 -412.75
215.56667 -396.84998 82.550003
216.73334 132.28333 495.29999
215.73334 330.70831 495.29999
216.06668 -330.70831 495.29999
215.56667 66.141663 495.29999
216.23334 330.70831 -495.29999
216.73334 -66.141663 -495.29999
216.06668 -132.28333 -495.29999
215.56667 -330.70831 -495.29999
215.90001 -397.01663 165.09999
215.90001 -396.68335 -165.09999
215.90001 -397.68332 82.550003
215.90001 -149.36667 165.09999
215.90001 -149.03334 -165.09999
215.90001 -150.03333 82.550003
215.90001 149.03334 165.09999
215.90001 149.36667 -165.09999
215.90001 148.36667 82.550003
215.90001 396.68335 165.09999
215.90001 397.01663 -165.09999
215.90001 396.01666 82.550003
215.90001 -66.141663 0.33333337
215.90001 66.141663 -0.33333337
215.90001 -330.70831 0.16666667
215.90001 -66.141663 495.63333
215.90001 66.141663 494.96664
215.90001 -330.70831 495.46664
215.90001 -66.141663 228.93333
215.90001 66.141663 228.26666
215.90001 -330.70831 228.76666
215.90001 -66.141663 -228.26666
215.90001 66.141663 -228.93333
215.90001 -330.70831 -228.43332
215.90001 -66.141663 -494.96664
215.90001 66.141663 -495.63333
215.90001 -330.70831 -495.13333
216.90001 -66.141663 165.09999
216.90001 66.141663 -165.09999
216.90001 -330.70831 82.550003
216.73334 -396.84998 -82.550003
214.90001 132.28333 -82.550003
214.90001 -132.28333 82.550003
214.90001 -330.70831 -165.09999
215.06667 -396.84998 82.550003
216.23334 396.84998 -82.550003
215.56667 396.84998 82.550003
215.06667 396.84998 -165.09999
214.90001 330.70831 165.09999
215.73334 -396.84998 165.09999
216.06668 -396.84998 -165.09999
215.73334 132.28333 495.29999
216.06668 -132.28333 495.29999
215.06667 66.141663 495.29999
214.90001 -66.141663 412.75
216.23334 -66.141663 -495.29999
215.56667 66.141663 -495.29999
215.06667 -132.28333 -495.29999
214.90001 66.141663 -412.75
215.90001 -396.01666 -82.550003
215.90001 -396.51666 412.75
215.90001 -397.18332 -412.75
215.90001 -148.36667 -82.550003
215.90001 -148.86667 412.75
215.90001 -149.53333 -412.75
215.90001 150.03333 -82.550003
215.90001 149.53333 412.75
215.90001 148.86667 -412.75
215.90001 397.68332 -82.550003
215.90001 397.18332 412.75
215.90001 396.51666 -412.75
215.90001 330.70831 -0.16666667
215.90001 132.28333 0.83333337
215.90001 -132.28333 -0.83333337
215.90001 330.70831 495.13333
215.90001 132.28333 496.13333
215.90001 -132.28333 494.46667
215.90001 330.70831 228.43332
215.90001 132.28333 229.43333
215.90001 -132.28333 227.76666
215.90001 330.70831 -228.76666
215.90001 132.28333 -227.76666
215.90001 -132.28333 -229.43333
215.90001 330.70831 -495.46664
215.90001 132.28333 -494.46667
215.90001 -132.28333 -496.13333
216.90001 330.70831 -82.550003
216.73334 396.84998 165.09999
216.90001 132.28333 412.75
216.73334 -66.141663 495.29999
216.90001 -132.28333 -412.75
216.73334 132.28333 -495.29999
215.73334 396.84998 412.75
216.23334 330.70831 495.29999
216.06668 396.84998 -412.75
215.73334 330.70831 -495.29999
216.23334 -396.84998 412.75
215.56667 -330.70831 495.29999
215.56667 -396.84998 -412.75
216.06668 -330.70831 -495.29999
215.90001 -396.01666 -330.20001
215.90001 -396.34998 -7.4505806e-06
215.90001 -397.68332 -412.75
215.90001 -397.35001 -247.64999
215.90001 -148.36667 -330.20001
215.90001 -148.7 -7.4505806e-06
215.90001 -150.03333 -412.75
215.90001 -149.7 -247.64999
215.90001 150.03333 -330.20001
215.90001 149.7 -7.4505806e-06
215.90001 148.36667 -412.75
215.90001 148.7 -247.64999
215.90001 397.68332 -330.20001
215.90001 397.35001 -7.4505806e-06
215.90001 396.01666 -412.75
215.90001 396.34998 -247.64999
215.90001 330.70831 -0.66666669
215.90001 198.42499 1.4551915e-08
215.90001 -330.70831 -0.83333337
215.90001 -198.42499 -0.5
215.90001 330.70831 494.63336
215.90001 198.42499 495.30002
215.90001 -330.70831 494.46667
215.90001 -198.42499 494.79996
215.90001 330.70831 227.93332
215.90001 198.42499 228.59999
215.90001 -330.70831 227.76666
215.90001 -198.42499 228.09999
215.90001 330.70831 -229.26668
215.90001 198.42499 -228.59999
215.90001 -330.70831 -229.43333
215.90001 -198.42499 -229.10001
215.90001 330.70831 -495.96667
215.90001 198.42499 -495.29999
215.90001 -330.70831 -496.13333
215.90001 -198.42499 -495.80002
216.90001 330.70831 -330.20001
216.90001 198.42499 -7.4505806e-06
216.90001 -330.70831 -412.75
216.90001 -198.42499 -247.64999
214.90001 -264.56665 412.75
214.90001 0 247.64999
214.90001 -330.70831 330.20001
214.90001 -198.42499 7.4505806e-06
215.23332 396.84998 412.75
215.90001 396.84998 247.64999
215.06667 396.84998 330.20001
215.40001 396.84998 7.4505806e-06
216.73334 -396.84998 -330.20001
216.39999 -396.84998 -7.4505806e-06
215.06667 -396.84998 -412.75
215.40001 -396.84998 -247.64999
216.73334 -264.56665 495.29999
216.39999 0 495.29999
215.06667 -330.70831 495.29999
215.40001 -198.42499 495.29999
215.23332 330.70831 -495.29999
215.90001 198.42499 -495.29999
215.06667 264.56665 -495.29999
215.40001 0 -495.29999
215.90001 -396.01666 412.75
215.90001 -396.34998 247.64999
215.90001 -397.51666 412.75
215.90001 -396.84998 247.64999
215.90001 -396.18335 -412.75
215.90001 -396.84998 -247.64999
215.90001 -397.68332 330.20001
215.90001 -397.35001 7.4505806e-06
215.90001 -148.36667 412.75
215.90001 -148.7 247.64999
215.90001 -149.86667 412.75
215.90001 -149.2 247.64999
215.90001 -148.53334 -412.75
215.90001 -149.2 -247.64999
215.90001 -150.03333 330.20001
215.90001 -149.7 7.4505806e-06
215.90001 150.03333 412.75
215.90001 149.7 247.64999
215.90001 148.53334 412.75
215.90001 149.2 247.64999
215.90001 149.86667 -412.75
215.90001 149.2 -247.64999
215.90001 148.36667 330.20001
215.90001 148.7 7.4505806e-06
215.90001 397.68332 412.75
215.90001 397.35001 247.64999
215.90001 396.18335 412.75
215.90001 396.84998 247.64999
215.90001 397.51666 -412.75
215.90001 396.84998 -247.64999
215.90001 396.01666 330.20001
215.90001 396.34998 7.4505806e-06
215.90001 330.70831 0.83333337
215.90001 198.42499 0.5
215.90001 -264.56665 0.83333337
215.90001 0 0.5
215.90001 264.56665 -0.83333337
215.90001 0 -0.5
215.90001 -330.70831 0.66666669
215.90001 -198.42499 -1.4551915e-08
215.90001 330.70831 496.13333
215.90001 198.42499 495.80002
215.90001 -264.56665 496.13333
215.90001 0 495.80002
215.90001 264.56665 494.46667
215.90001 0 494.79996
215.90001 -330.70831 495.96667
215.90001 -198.42499 495.29999
215.90001 330.70831 229.43333
215.90001 198.42499 229.10001
215.90001 -264.56665 229.43333
215.90001 0 229.10001
215.90001 264.56665 227.76666
215.90001 0 228.09999
215.90001 -330.70831 229.26668
215.90001 -198.42499 228.59999
215.90001 330.70831 -227.76666
215.90001 198.42499 -228.09999
215.90001 -264.56665 -227.76666
215.90001 0 -228.09999
215.90001 264.56665 -229.43333
215.90001 0 -229.10001
215.90001 -330.70831 -227.93332
215.90001 -198.42499 -228.59999
215.90001 330.70831 -494.46667
215.90001 198.42499 -494.79996
215.90001 -264.56665 -494.46667
215.90001 0 -494.79996
215.90001 264.56665 -496.13333
215.90001 0 -495.80002
215.90001 -330.70831 -494.63336
215.90001 -198.42499 -495.29999
216.90001 330.70831 412.75
216.90001 198.42499 247.64999
216.90001 -264.56665 412.75
216.90001 0 247.64999
216.90001 264.56665 -412.75
216.90001 0 -247.64999
216.90001 -330.70831 330.20001
216.90001 -198.42499 7.4505806e-06
214.90001 330.70831 412.75
214.90001 198.42499 247.64999
214.90001 330.70831 -330.20001
214.90001 198.42499 -7.4505806e-06
214.90001 264.56665 -412.75
214.90001 0 -247.64999
214.90001 -330.70831 -412.75
214.90001 -198.42499 -247.64999
216.73334 396.84998 412.75
216.39999 396.84998 247.64999
216.73334 396.84998 -330.20001
216.39999 396.84998 -7.4505806e-06
216.56668 396.84998 -412.75
215.90001 396.84998 -247.64999
215.06667 396.84998 -412.75
215.40001 396.84998 -247.64999
216.73334 -396.84998 412.75
216.39999 -396.84998 247.64999
215.23332 -396.84998 412.75
215.90001 -396.84998 247.64999
216.56668 -396.84998 -412.75
215.90001 -396.84998 -247.64999
215.06667 -396.84998 330.20001
215.40001 -396.84998 7.4505806e-06
216.73334 330.70831 495.29999
216.39999 198.42499 495.29999
215.23332 330.70831 495.29999
215.90001 198.42499 495.29999
216.56668 -330.70831 495.29999
215.90001 -198.42499 495.29999
215.06667 264.56665 495.29999
215.40001 0 495.29999
216.73334 330.70831 -495.29999
216.39999 198.42499 -495.29999
216.73334 -264.56665 -495.29999
216.39999 0 -495.29999
216.56668 -330.70831 -495.29999
215.90001 -198.42499 -495.29999
215.06667 -330.70831 -495.29999
215.40001 -198.42499 -495.29999
215.90001 -396.43332 -41.275005
215.90001 -397.51666 -206.37498
215.90001 -148.78334 -41.275005
215.90001 -149.86667 -206.37498
215.90001 149.61665 -41.275005
215.90001 148.53334 -206.37498
215.90001 397.26666 -41.275005
215.90001 396.18332 -206.37498
215.90001 165.35416 -0.083333328
215.90001 -264.56665 -0.41666672
215.90001 165.35416 495.21667
215.90001 -264.56665 494.88333
215.90001 165.35416 228.51666
215.90001 -264.56665 228.18333
215.90001 165.35416 -228.68332
215.90001 -264.56665 -229.01666
215.90001 165.35416 -495.38333
215.90001 -264.56665 -495.71667
216.90001 165.35416 -41.275005
216.90001 -264.56665 -206.37498
214.90001 -33.070831 206.37498
214.90001 -264.56665 41.275005
215.81667 396.84998 206.37498
215.23334 396.84998 41.275005
216.31667 -396.84998 -41.275005
215.23334 -396.84998 -206.37498
216.31667 -33.070831 495.29999
215.23334 -165.35416 495.29999
215.81667 165.35416 -495.29999
215.23334 33.070831 -495.29999
215.90001 -396.18332 206.37498
215.90001 -396.93332 330.19998
215.90001 -396.76666 -330.19998
215.90001 -397.26666 41.275005
215.90001 -148.53334 206.37498
215.90001 -149.28334 330.19998
215.90001 -149.11667 -330.19998
215.90001 -149.61665 41.275005
215.90001 149.86667 206.37498
215.90001 149.11667 330.19998
215.90001 149.28334 -330.19998
215.90001 148.78334 41.275005
215.90001 397.51666 206.37498
215.90001 396.76666 330.19998
215.90001 396.93332 -330.19998
215.90001 396.43332 41.275005
215.90001 264.56665 0.41666672
215.90001 -33.070831 0.66666675
215.90001 33.070831 -0.66666675
215.90001 -165.35416 0.083333328
215.90001 264.56665 495.71671
215.90001 -33.070831 495.96667
215.90001 33.070831 494.63333
215.90001 -165.35416 495.38333
215.90001 264.56665 229.01666
215.90001 -33.070831 229.26668
215.90001 33.070831 227.93332
215.90001 -165.35416 228.68332
215.90001 264.56665 -228.18333
215.90001 -33.070831 -227.93332
215.90001 33.070831 -229.26668
215.90001 -165.35416 -228.51666
215.90001 264.56665 -494.88333
215.90001 -33.070831 -494.63333
215.90001 33.070831 -495.96667
215.90001 -165.35416 -495.21667
216.90001 264.56665 206.37498
216.90001 -33.070831 330.19998
216.90001 33.070831 -330.19998
216.90001 -165.35416 41.275005
214.90001 165.35416 330.19998
214.90001 264.56665 -41.275005
214.90001 33.070831 -206.37498
214.90001 -165.35416 -330.19998
216.31667 396.84998 330.19998
216.56667 396.84998 -41.275005
215.98335 396.84998 -206.37498
215.48334 396.84998 -330.19998
216.56667 -396.84998 206.37498
215.81667 -396.84998 330.19998
215.98335 -396.84998 -330.19998
215.48334 -396.84998 41.275005
216.56667 165.35416 495.29999
215.81667 264.56665 495.29999
215.98335 -264.56665 495.29999
215.48334 33.070831 495.29999
216.31667 264.56665 -495.29999
216.56667 -33.070831 -495.29999
215.98335 -165.35416 -495.29999
215.48334 -264.56665 -495.29999
215.90001 -397.26669 288.92499
215.90001 -396.43335 -288.92499
215.90001 -397.68332 206.375
215.90001 -149.61665 288.92499
215.90001 -148.78333 -288.92499
215.90001 -150.03333 206.375
215.90001 148.78333 288.92499
215.90001 149.61665 -288.92499
215.90001 148.36667 206.375
215.90001 396.43335 288.92499
215.90001 397.26669 -288.92499
215.90001 396.01666 206.375
215.90001 -165.35416 0.58333337
215.90001 165.35416 -0.58333337
215.90001 -330.70831 0.41666669
215.90001 -165.35416 495.88333
215.90001 165.35416 494.71664
215.90001 -330.70831 495.71671
215.90001 -165.35416 229.18333
215.90001 165.35416 228.01666
215.90001 -330.70831 229.01666
215.90001 -165.35416 -228.01666
215.90001 165.35416 -229.18333
215.90001 -330.70831 -228.18333
215.90001 -165.35416 -494.71664
215.90001 165.35416 -495.88333
215.90001 -330.70831 -494.88336
216.90001 -165.35416 288.92499
216.90001 165.35416 -288.92499
216.90001 -330.70831 206.375
216.73334 -396.84998 -206.375
214.90001 231.49583 -206.375
214.90001 -231.49583 206.375
214.90001 -330.70831 -288.92499
215.06667 -396.84998 206.375
216.48332 396.84998 -206.375
215.31668 396.84998 206.375
215.06667 396.84998 -288.92499
214.90001 330.70831 288.92499
215.48334 -396.84998 288.92499
216.31667 -396.84998 -288.92499
215.48334 231.49583 495.29999
216.31667 -231.49583 495.29999
215.06667 165.35416 495.29999
214.90001 -165.35416 412.75
216.48332 -165.35416 -495.29999
215.31668 165.35416 -495.29999
215.06667 -231.49583 -495.29999
214.90001 165.35416 -412.75
215.90001 -396.01666 -206.375
215.90001 -396.26663 412.75
215.90001 -397.43335 -412.75
215.90001 -148.36667 -206.375
215.90001 -148.61667 412.75
215.90001 -149.78333 -412.75
215.90001 150.03333 -206.375
215.90001 149.78333 412.75
215.90001 148.61667 -412.75
215.90001 397.68332 -206.375
215.90001 397.43335 412.75
215.90001 396.26663 -412.75
215.90001 330.70831 -0.41666669
215.90001 231.49583 0.83333337
215.90001 -231.49583 -0.83333337
215.90001 330.70831 494.88336
215.90001 231.49583 496.13333
215.90001 -231.49583 494.46667
215.90001 330.70831 228.18333
215.90001 231.49583 229.43333
215.90001 -231.49583 227.76666
215.90001 330.70831 -229.01666
215.90001 231.49583 -227.76666
215.90001 -231.49583 -229.43333
215.90001 330.70831 -495.71671
215.90001 231.49583 -494.46667
215.90001 -231.49583 -496.13333
216.90001 330.70831 -206.375
216.73334 396.84998 288.92499
216.90001 231.49583 412.75
216.73334 -165.35416 495.29999
216.90001 -231.49583 -412.75
216.73334 231.49583 -495.29999
215.48334 396.84998 412.75
216.48332 330.70831 495.29999
216.31667 396.84998 -412.75
215.48334 330.70831 -495.29999
216.48332 -396.84998 412.75
215.31668 -330.70831 495.29999
215.31668 -396.84998 -412.75
216.31667 -330.70831 -495.29999
215.90001 -396.26663 -206.375
215.90001 -396.18332 -41.275005
215.90001 -397.68332 -288.92499
215.90001 -397.26666 -330.19998
215.90001 -148.61667 -206.375
215.90001 -148.53334 -41.275005
215.90001 -150.03333 -288.92499
215.90001 -149.61665 -330.19998
215.90001 149.78333 -206.375
215.90001 149.86667 -41.275005
215.90001 148.36667 -288.92499
215.90001 148.78334 -330.19998
215.90001 397.43335 -206.375
215.90001 397.51666 -41.275005
215.90001 396.01666 -288.92499
215.90001 396.43332 -330.19998
215.90001 231.49583 -0.41666669
215.90001 264.56665 -0.083333328
215.90001 -330.70831 -0.58333337
215.90001 -165.35416 -0.66666675
215.90001 231.49583 494.88336
215.90001 264.56665 495.21667
215.90001 -330.70831 494.71664
215.90001 -165.35416 494.63333
215.90001 231.49583 228.18333
215.90001 264.56665 228.51666
215.90001 -330.70831 228.01666
215.90001 -165.35416 227.93332
215.90001 231.49583 -229.01666
215.90001 264.56665 -228.68332
215.90001 -330.70831 -229.18333
215.90001 -165.35416 -229.26668
215.90001 231.49583 -495.71671
215.90001 264.56665 -495.38333
215.90001 -330.70831 -495.88333
215.90001 -165.35416 -495.96667
216.90001 231.49583 -206.375
216.90001 264.56665 -41.275005
216.90001 -330.70831 -288.92499
216.90001 -165.35416 -330.19998
214.90001 -165.35416 288.92499
214.90001 -33.070831 330.19998
214.90001 -330.70831 206.375
214.90001 -165.35416 41.275005
215.48334 396.84998 288.92499
215.81667 396.84998 330.19998
215.06667 396.84998 206.375
215.48334 396.84998 41.275005
216.48332 -396.84998 -206.375
216.56667 -396.84998 -41.275005
215.06667 -396.84998 -288.92499
215.48334 -396.84998 -330.19998
216.48332 -165.35416 495.29999
216.56667 -33.070831 495.29999
215.06667 -231.49583 495.29999
215.48334 -264.56665 495.29999
215.48334 231.49583 -495.29999
215.81667 264.56665 -495.29999
215.06667 165.35416 -495.29999
215.48334 33.070831 -495.29999
215.90001 -396.01666 288.92499
215.90001 -396.43332 330.19998
215.90001 -397.26669 412.75
215.90001 -396.93332 206.37498
215.90001 -396.43335 -412.75
215.90001 -396.76666 -206.37498
215.90001 -397.43335 206.375
215.90001 -397.51666 41.275005
215.90001 -148.36667 288.92499
215.90001 -148.78334 330.19998
215.90001 -149.61665 412.75
215.90001 -149.28334 206.37498
215.90001 -148.78333 -412.75
215.90001 -149.11667 -206.37498
215.90001 -149.78333 206.375
215.90001 -149.86667 41.275005
215.90001 150.03333 288.92499
215.90001 149.61665 330.19998
215.90001 148.78333 412.75
215.90001 149.11667 206.37498
215.90001 149.61665 -412.75
215.90001 149.28334 -206.37498
215.90001 148.61667 206.375
215.90001 148.53334 41.275005
215.90001 397.68332 288.92499
215.90001 397.26666 330.19998
215.90001 396.43335 412.75
215.90001 396.76666 206.37498
215.90001 397.26669 -412.75
215.90001 396.93332 -206.37498
215.90001 396.26663 206.375
215.90001 396.18332 41.275005
215.90001 330.70831 0.58333337
215.90001 165.35416 0.66666675
215.90001 -165.35416 0.83333337
215.90001 -33.070831 0.41666672
215.90001 165.35416 -0.83333337
215.90001 33.070831 -0.41666672
215.90001 -231.49583 0.41666669
215.90001 -264.56665 0.083333328
215.90001 330.70831 495.88333
215.90001 165.35416 495.96667
215.90001 -165.35416 496.13333
215.90001 -33.070831 495.71671
215.90001 165.35416 494.46667
215.90001 33.070831 494.88333
215.90001 -231.49583 495.71671
215.90001 -264.56665 495.38333
215.90001 330.70831 229.18333
215.90001 165.35416 229.26668
215.90001 -165.35416 229.43333
215.90001 -33.070831 229.01666
215.90001 165.35416 227.76666
215.90001 33.070831 228.18333
215.90001 -231.49583 229.01666
215.90001 -264.56665 228.68332
215.90001 330.70831 -228.01666
215.90001 165.35416 -227.93332
215.90001 -165.35416 -227.76666
215.90001 -33.070831 -228.18333
215.90001 165.35416 -229.43333
215.90001 33.070831 -229.01666
215.90001 -231.49583 -228.18333
215.90001 -264.56665 -228.51666
215.90001 330.70831 -494.71664
215.90001 165.35416 -494.63333
215.90001 -165.35416 -494.46667
215.90001 -33.070831 -494.88333
215.90001 165.35416 -496.13333
215.90001 33.070831 -495.71667
215.90001 -231.49583 -494.88336
215.90001 -264.56665 -495.21667
216.90001 330.70831 288.92499
216.90001 165.35416 330.19998
216.90001 -165.35416 412.75
216.90001 -33.070831 206.37498
216.90001 165.35416 -412.75
216.90001 33.070831 -206.37498
216.90001 -231.49583 206.375
216.90001 -264.56665 41.275005
214.90001 231.49583 412.75
214.90001 264.56665 206.37498
214.90001 330.70831 -206.375
214.90001 165.35416 -41.275005
214.90001 165.35416 -288.92499
214.90001 33.070831 -330.19998
214.90001 -231.49583 -412.75
214.90001 -264.56665 -206.37498
216.48332 396.84998 412.75
216.56667 396.84998 206.37498
216.73334 396.84998 -206.375
216.31667 396.84998 -41.275005
216.31667 396.84998 -288.92499
215.98335 396.84998 -330.19998
215.31668 396.84998 -412.75
215.23334 396.84998 -206.37498
216.73334 -396.84998 288.92499
216.31667 -396.84998 330.19998
215.48334 -396.84998 412.75
215.81667 -396.84998 206.37498
216.31667 -396.84998 -412.75
215.98335 -396.84998 -206.37498
215.31668 -396.84998 206.375
215.23334 -396.84998 41.275005
216.73334 231.49583 495.29999
216.31667 264.56665 495.29999
215.48334 330.70831 495.29999
215.81667 165.35416 495.29999
216.31667 -330.70831 495.29999
215.98335 -165.35416 495.29999
215.31668 165.35416 495.29999
215.23334 33.070831 495.29999
216.48332 330.70831 -495.29999
216.56667 165.35416 -495.29999
216.73334 -165.35416 -495.29999
216.31667 -33.070831 -495.29999
216.31667 -231.49583 -495.29999
215.98335 -264.56665 -495.29999
215.31668 -330.70831 -495.29999
215.23334 -165.35416 -495.29999
215.90001 -396.60001 123.825
215.90001 -396.76666 41.274998
215.90001 -397.35001 -123.825
215.90001 -397.68332 -41.274998
215.90001 -148.95001 123.825
215.90001 -149.11667 41.274998
215.90001 -149.7 -123.825
215.90001 -150.03333 -41.274998
215.90001 149.45 123.825
215.90001 149.28333 41.274998
215.90001 148.7 -123.825
215.90001 148.36667 -41.274998
215.90001 397.09998 123.825
215.90001 396.93332 41.274998
215.90001 396.34998 -123.825
215.90001 396.01666 -41.274998
215.90001 99.212494 0.25
215.90001 33.070831 0.083333343
215.90001 -198.42499 -0.25
215.90001 -330.70831 -0.083333343
215.90001 99.212494 495.55005
215.90001 33.070831 495.38333
215.90001 -198.42499 495.05002
215.90001 -330.70831 495.21667
215.90001 99.212494 228.85001
215.90001 33.070831 228.68332
215.90001 -198.42499 228.34999
215.90001 -330.70831 228.51666
215.90001 99.212494 -228.34999
215.90001 33.070831 -228.51666
215.90001 -198.42499 -228.85001
215.90001 -330.70831 -228.68332
215.90001 99.212494 -495.05002
215.90001 33.070831 -495.21667
215.90001 -198.42499 -495.54999
215.90001 -330.70831 -495.38333
216.90001 99.212494 123.825
216.90001 33.070831 41.274998
216.90001 -198.42499 -123.825
216.90001 -330.70831 -41.274998
214.90001 99.212494 123.825
214.90001 33.070831 41.274998
214.90001 -198.42499 -123.825
214.90001 -330.70831 -41.274998
216.14998 396.84998 123.825
215.98334 396.84998 41.274998
215.40001 396.84998 -123.825
215.06667 396.84998 -41.274998
216.14998 -396.84998 123.825
215.98334 -396.84998 41.274998
215.40001 -396.84998 -123.825
215.06667 -396.84998 -41.274998
216.14998 99.212494 495.29999
215.98334 33.070831 495.29999
215.40001 -99.212494 495.29999
215.06667 -33.070831 495.29999
216.14998 99.212494 -495.29999
215.98334 33.070831 -495.29999
215.40001 -99.212494 -495.29999
215.06667 -33.070831 -495.29999
215.90001 -396.34998 123.825
215.90001 -396.01666 41.274998
215.90001 -396.60001 247.64999
215.90001 -396.76666 412.75
215.90001 -397.09998 -247.64999
215.90001 -396.93332 -412.75
215.90001 -397.09998 -123.825
215.90001 -396.93332 -41.274998
215.90001 -148.7 123.825
215.90001 -148.36667 41.274998
215.90001 -148.95001 247.64999
215.90001 -149.11667 412.75
215.90001 -149.45 -247.64999
215.90001 -149.28333 -412.75
215.90001 -149.45 -123.825
215.90001 -149.28333 -41.274998
215.90001 149.7 123.825
215.90001 150.03333 41.274998
215.90001 149.45 247.64999
215.90001 149.28333 412.75
215.90001 148.95001 -247.64999
215.90001 149.11667 -412.75
215.90001 148.95001 -123.825
215.90001 149.11667 -41.274998
215.90001 397.35001 123.825
215.90001 397.68332 41.274998
215.90001 397.09998 247.64999
215.90001 396.93332 412.75
215.90001 396.60001 -247.64999
215.90001 396.76666 -412.75
215.90001 396.60001 -123.825
215.90001 396.76666 -41.274998
215.90001 198.42499 0.25
215.90001 330.70831 0.083333343
215.90001 99.212494 0.5
215.90001 33.070831 0.83333337
215.90001 -99.212494 -0.5
215.90001 -33.070831 -0.83333337
215.90001 -99.212494 -0.25
215.90001 -33.070831 -0.083333343
215.90001 198.42499 495.55005
215.90001 330.70831 495.38333
215.90001 99.212494 495.80002
215.90001 33.070831 496.13333
215.90001 -99.212494 494.79996
215.90001 -33.070831 494.46667
215.90001 -99.212494 495.05002
215.90001 -33.070831 495.21667
215.90001 198.42499 228.85001
215.90001 330.70831 228.68332
215.90001 99.212494 229.10001
215.90001 33.070831 229.43333
215.90001 -99.212494 228.09999
215.90001 -33.070831 227.76666
215.90001 -99.212494 228.34999
215.90001 -33.070831 228.51666
215.90001 198.42499 -228.34999
215.90001 330.70831 -228.51666
215.90001 99.212494 -228.09999
215.90001 33.070831 -227.76666
215.90001 -99.212494 -229.10001
215.90001 -33.070831 -229.43333
215.90001 -99.212494 -228.85001
215.90001 -33.070831 -228.68332
215.90001 198.42499 -495.05002
215.90001 330.70831 -495.21667
215.90001 99.212494 -494.79996
215.90001 33.070831 -494.46667
215.90001 -99.212494 -495.80002
215.90001 -33.070831 -496.13333
215.90001 -99.212494 -495.54999
215.90001 -33.070831 -495.38333
216.90001 198.42499 123.825
216.90001 330.70831 41.274998
216.90001 99.212494 247.64999
216.90001 33.070831 412.75
216.90001 -99.212494 -247.64999
216.90001 -33.070831 -412.75
216.90001 -99.212494 -123.825
216.90001 -33.070831 -41.274998
214.90001 99.212494 247.64999
214.90001 33.070831 412.75
214.90001 198.42499 123.825
214.90001 330.70831 41.274998
214.90001 -99.212494 -123.825
214.90001 -33.070831 -41.274998
214.90001 -99.212494 -247.64999
214.90001 -33.070831 -412.75
216.14998 396.84998 247.64999
215.98334 396.84998 412.75
216.39999 396.84998 123.825
216.73334 396.84998 41.274998
215.65002 396.84998 -123.825
215.81668 396.84998 -41.274998
215.65002 396.84998 -247.64999
215.81668 396.84998 -412.75
216.39999 -396.84998 123.825
216.73334 -396.84998 41.274998
216.14998 -396.84998 247.64999
215.98334 -396.84998 412.75
215.65002 -396.84998 -247.64999
215.81668 -396.84998 -412.75
215.65002 -396.84998 -123.825
215.81668 -396.84998 -41.274998
216.39999 99.212494 495.29999
216.73334 33.070831 495.29999
216.14998 198.42499 495.29999
215.98334 330.70831 495.29999
215.65002 -198.42499 495.29999
215.81668 -330.70831 495.29999
215.65002 -99.212494 495.29999
215.81668 -33.070831 495.29999
216.14998 198.42499 -495.29999
215.98334 330.70831 -495.29999
216.39999 99.212494 -495.29999
216.73334 33.070831 -495.29999
215.65002 -99.212494 -495.29999
215.81668 -33.070831 -495.29999
215.65002 -198.42499 -495.29999
215.81668 -330.70831 -495.29999
215.90001 -397.60001 371.47498
215.90001 -397.10001 123.825
215.90001 -396.09998 -371.47498
215.90001 -396.60001 -123.825
215.90001 -397.85001 371.47498
215.90001 -397.85001 123.825
215.90001 -397.85001 -371.47498
215.90001 -397.85001 -123.825
215.90001 -149.95 371.47498
215.90001 -149.44998 123.825
215.90001 -148.45 -371.47498
215.90001 -148.95 -123.825
215.90001 -150.2 371.47498
215.90001 -150.2 123.825
215.90001 -150.2 -371.47498
215.90001 -150.2 -123.825
215.90001 148.45 371.47498
215.90001 148.95 123.825
215.90001 149.95 -371.47498
215.90001 149.44998 -123.825
215.90001 148.20001 371.47498
215.90001 148.20001 123.825
215.90001 148.20001 -371.47498
215.90001 148.20001 -123.825
215.90001 396.09998 371.47498
215.90001 396.60001 123.825
215.90001 397.60001 -371.47498
215.90001 397.10001 -123.825
215.90001 395.85001 371.47498
215.90001 395.85001 123.825
215.90001 395.85001 -371.47498
215.90001 395.85001 -123.825
215.90001 -297.63748 0.75
215.90001 -99.212494 0.25
215.90001 297.63748 -0.75
215.90001 99.212494 -0.25
215.90001 -396.84998 0.75
215.90001 -396.84998 0.25
215.90001 -396.84998 -0.75
215.90001 -396.84998 -0.25
215.90001 -297.63748 496.04999
215.90001 -99.212494 495.55002
215.90001 297.63748 494.54999
215.90001 99.212494 495.05002
215.90001 -396.84998 496.04999
215.90001 -396.84998 495.55002
215.90001 -396.84998 494.54999
215.90001 -396.84998 495.05002
215.90001 -297.63748 229.35001
215.90001 -99.212494 228.84999
215.90001 297.63748 227.84999
215.90001 99.212494 228.35001
215.90001 -396.84998 229.35001
215.90001 -396.84998 228.84999
215.90001 -396.84998 227.84999
215.90001 -396.84998 228.35001
215.90001 -297.63748 -227.84999
215.90001 -99.212494 -228.35001
215.90001 297.63748 -229.35001
215.90001 99.212494 -228.84999
215.90001 -396.84998 -227.84999
215.90001 -396.84998 -228.35001
215.90001 -396.84998 -229.35001
215.90001 -396.84998 -228.84999
215.90001 -297.63748 -494.54999
215.90001 -99.212494 -495.05002
215.90001 297.63748 -496.04999
215.90001 99.212494 -495.55002
215.90001 -396.84998 -494.54999
215.90001 -396.84998 -495.05002
215.90001 -396.84998 -496.04999
215.90001 -396.84998 -495.55002
216.90001 -297.63748 371.47498
216.90001 -99.212494 123.825
216.90001 297.63748 -371.47498
216.90001 99.212494 -123.825
216.90001 -396.84998 371.47498
216.90001 -396.84998 123.825
216.90001 -396.84998 -371.47498
216.90001 -396.84998 -123.825
214.90001 297.63748 -371.47498
214.90001 99.212494 -123.825
214.90001 -297.63748 371.47498
214.90001 -99.212494 123.825
214.90001 -396.84998 -371.47498
214.90001 -396.84998 -123.825
214.90001 -396.84998 371.47498
214.90001 -396.84998 123.825
216.65001 396.84998 -371.47498
216.14999 396.84998 -123.825
215.14999 396.84998 371.47498
215.65001 396.84998 123.825
214.90001 396.84998 -371.47498
214.90001 396.84998 -123.825
214.90001 396.84998 371.47498
214.90001 396.84998 123.825
215.14999 -396.84998 371.47498
215.65001 -396.84998 123.825
216.65001 -396.84998 -371.47498
216.14999 -396.84998 -123.825
215.14999 297.63748 495.29999
215.65001 99.212494 495.29999
216.65001 -297.63748 495.29999
216.14999 -99.212494 495.29999
214.90001 297.63748 495.29999
214.90001 99.212494 495.29999
214.90001 -297.63748 495.29999
214.90001 -99.212494 495.29999
216.65001 -297.63748 -495.29999
216.14999 -99.212494 -495.29999
215.14999 297.63748 -495.29999
215.65001 99.212494 -495.29999
214.90001 -297.63748 -495.29999
214.90001 -99.212494 -495.29999
214.90001 297.63748 -495.29999
214.90001 99.212494 -495.29999
215.90001 -395.85001 -371.47498
215.90001 -395.85001 -123.825
215.90001 -395.85001 371.47498
215.90001 -395.85001 123.825
215.90001 -396.09998 495.29999
215.90001 -396.60001 495.29999
215.90001 -397.60001 495.29999
215.90001 -397.10001 495.29999
215.90001 -397.60001 -495.29999
215.90001 -397.10001 -495.29999
215.90001 -396.09998 -495.29999
215.90001 -396.60001 -495.29999
215.90001 -148.20001 -371.47498
215.90001 -148.20001 -123.825
215.90001 -148.20001 371.47498
215.90001 -148.20001 123.825
215.90001 -148.45 495.29999
215.90001 -148.95 495.29999
215.90001 -149.95 495.29999
215.90001 -149.44998 495.29999
215.90001 -149.95 -495.29999
215.90001 -149.44998 -495.29999
215.90001 -148.45 -495.29999
215.90001 -148.95 -495.29999
215.90001 150.2 -371.47498
215.90001 150.2 -123.825
215.90001 150.2 371.47498
215.90001 150.2 123.825
215.90001 149.95 495.29999
215.90001 149.44998 495.29999
215.90001 148.45 495.29999
215.90001 148.95 495.29999
215.90001 148.45 -495.29999
215.90001 148.95 -495.29999
215.90001 149.95 -495.29999
215.90001 149.44998 -495.29999
215.90001 397.85001 -371.47498
215.90001 397.85001 -123.825
215.90001 397.85001 371.47498
215.90001 397.85001 123.825
215.90001 397.60001 495.29999
215.90001 397.10001 495.29999
215.90001 396.09998 495.29999
215.90001 396.60001 495.29999
215.90001 396.09998 -495.29999
215.90001 396.60001 -495.29999
215.90001 397.60001 -495.29999
215.90001 397.10001 -495.29999
215.90001 396.84998 -0.75
215.90001 396.84998 -0.25
215.90001 396.84998 0.75
215.90001 396.84998 0.25
215.90001 297.63748 1
215.90001 99.212494 1
215.90001 -297.63748 1
215.90001 -99.212494 1
215.90001 -297.63748 -1
215.90001 -99.212494 -1
215.90001 297.63748 -1
215.90001 99.212494 -1
215.90001 396.84998 494.54999
215.90001 396.84998 495.05002
215.90001 396.84998 496.04999
215.90001 396.84998 495.55002
215.90001 297.63748 496.30002
215.90001 99.212494 496.30002
215.90001 -297.63748 496.30002
215.90001 -99.212494 496.30002
215.90001 -297.63748 494.30002
215.90001 -99.212494 494.30002
215.90001 297.63748 494.30002
215.90001 99.212494 494.30002
215.90001 396.84998 227.84999
215.90001 396.84998 228.35001
215.90001 396.84998 229.35001
215.90001 396.84998 228.84999
215.90001 297.63748 229.59999
215.90001 99.212494 229.59999
215.90001 -297.63748 229.59999
215.90001 -99.212494 229.59999
215.90001 -297.63748 227.59999
215.90001 -99.212494 227.59999
215.90001 297.63748 227.59999
215.90001 99.212494 227.59999
215.90001 396.84998 -229.35001
215.90001 396.84998 -228.84999
215.90001 396.84998 -227.84999
215.90001 396.84998 -228.35001
215.90001 297.63748 -227.59999
215.90001 99.212494 -227.59999
215.90001 -297.63748 -227.59999
215.90001 -99.212494 -227.59999
215.90001 -297.63748 -229.59999
215.90001 -99.212494 -229.59999
215.90001 297.63748 -229.59999
215.90001 99.212494 -229.59999
215.90001 396.84998 -496.04999
215.90001 396.84998 -495.55002
215.90001 396.84998 -494.54999
215.90001 396.84998 -495.05002
215.90001 297.63748 -494.30002
215.90001 99.212494 -494.30002
215.90001 -297.63748 -494.30002
215.90001 -99.212494 -494.30002
215.90001 -297.63748 -496.30002
215.90001 -99.212494 -496.30002
215.90001 297.63748 -496.30002
215.90001 99.212494 -496.30002
216.90001 396.84998 -371.47498
216.90001 396.84998 -123.825
216.90001 396.84998 371.47498
216.90001 396.84998 123.825
216.90001 297.63748 495.29999
216.90001 99.212494 495.29999
216.90001 -297.63748 495.29999
216.90001 -99.212494 495.29999
216.90001 -297.63748 -495.29999
216.90001 -99.212494 -495.29999
216.90001 297.63748 -495.29999
216.90001 99.212494 -495.29999
215.14999 396.84998 495.29999
215.65001 396.84998 495.29999
216.65001 396.84998 495.29999
216.14999 396.84998 495.29999
216.65001 396.84998 -495.29999
216.14999 396.84998 -495.29999
215.14999 396.84998 -495.29999
215.65001 396.84998 -495.29999
216.65001 -396.84998 495.29999
216.14999 -396.84998 495.29999
215.14999 -396.84998 495.29999
215.65001 -396.84998 495.29999
215.14999 -396.84998 -495.29999
