# .PCD v0.7 - Point Cloud Data file format
VERSION 0.7
FIELDS x y z
SIZE 4 4 4
TYPE F F F
COUNT 1 1 1
WIDTH 148
HEIGHT 1
VIEWPOINT 0 0 0 1 0 0 0
POINTS 148
DATA ascii
215.90001 -148.20001 114.3
215.90001 -148.20001 -114.3
215.90001 -150.2 114.3
215.90001 -150.2 -114.3
-215.90001 -148.20001 114.3
-215.90001 -148.20001 -114.3
-215.90001 -150.2 114.3
-215.90001 -150.2 -114.3
215.90001 150.2 114.3
215.90001 150.2 -114.3
215.90001 148.20001 114.3
215.90001 148.20001 -114.3
-215.90001 150.2 114.3
-215.90001 150.2 -114.3
-215.90001 148.20001 114.3
-215.90001 148.20001 -114.3
216.90001 149.20001 114.3
216.90001 149.20001 -114.3
216.90001 -149.20001 114.3
216.90001 -149.20001 -114.3
214.90001 149.20001 114.3
214.90001 149.20001 -114.3
214.90001 -149.20001 114.3
214.90001 -149.20001 -114.3
215.90001 149.20001 -113.3
215.90001 149.20001 -115.3
215.90001 -149.20001 -113.3
215.90001 -149.20001 -115.3
-215.90001 149.20001 -113.3
-215.90001 149.20001 -115.3
-215.90001 -149.20001 -113.3
-215.90001 -149.20001 -115.3
215.90001 149.20001 115.3
215.90001 149.20001 113.3
215.90001 -149.20001 115.3
215.90001 -149.20001 113.3
-215.90001 149.20001 115.3
-215.90001 149.20001 113.3
-215.90001 -149.20001 115.3
-215.90001 -149.20001 113.3
0 -4.4408921e-16 -116.3
0 4.4408921e-16 -114.3
10 -4.4408921e-16 -116.3
10 4.4408921e-16 -114.3
10 -4.4408921e-16 -116.3
10 4.4408921e-16 -114.3
9.9242048 -1.2288829 -116.3
9.9242048 -1.2288829 -114.3
9.6979694 -2.4391372 -116.3
9.6979694 -2.4391372 -114.3
9.3247223 -3.6124165 -116.3
9.3247223 -3.6124165 -114.3
8.8101215 -4.7309356 -116.3
8.8101215 -4.7309356 -114.3
8.1619692 -5.7777386 -116.3
8.1619692 -5.7777386 -114.3
7.3900895 -6.7369566 -116.3
7.3900895 -6.7369566 -114.3
6.5061831 -7.594049 -116.3
6.5061831 -7.594049 -114.3
5.5236497 -8.3360233 -116.3
5.5236497 -8.3360233 -114.3
4.4573836 -8.9516335 -116.3
4.4573836 -8.9516335 -114.3
3.3235481 -9.4315443 -116.3
3.3235481 -9.4315443 -114.3
2.1393309 -9.7684832 -116.3
2.1393309 -9.7684832 -114.3
0.9226836 -9.9573412 -116.3
0.9226836 -9.9573412 -114.3
-0.30795059 -9.9952574 -116.3
-0.30795059 -9.9952574 -114.3
-1.5339166 -9.8816547 -116.3
-1.5339166 -9.8816547 -114.3
-2.73663 -9.6182566 -116.3
-2.73663 -9.6182566 -114.3
-3.8978589 -9.2090559 -116.3
-3.8978589 -9.2090559 -114.3
-5 -8.6602545 -116.3
-5 -8.6602545 -114.3
-6.0263462 -7.9801726 -116.3
-6.0263462 -7.9801726 -114.3
-6.9613395 -7.1791191 -116.3
-6.9613395 -7.1791191 -114.3
-7.7908058 -6.269238 -116.3
-7.7908058 -6.269238 -114.3
-8.5021715 -5.2643218 -116.3
-8.5021715 -5.2643218 -114.3
-9.0846529 -4.1796036 -116.3
-9.0846529 -4.1796036 -114.3
-9.5294199 -3.0315268 -116.3
-9.5294199 -3.0315268 -114.3
-9.829731 -1.8374951 -116.3
-9.829731 -1.8374951 -114.3
-9.9810333 -0.61560905 -116.3
-9.9810333 -0.61560905 -114.3
-9.9810333 0.61560905 -116.3
-9.9810333 0.61560905 -114.3
-9.829731 1.8374951 -116.3
-9.829731 1.8374951 -114.3
-9.5294199 3.0315268 -116.3
-9.5294199 3.0315268 -114.3
-9.0846529 4.1796036 -116.3
-9.0846529 4.1796036 -114.3
-8.5021715 5.2643218 -116.3
-8.5021715 5.2643218 -114.3
-7.7908058 6.269238 -116.3
-7.7908058 6.269238 -114.3
-6.9613395 7.1791191 -116.3
-6.9613395 7.1791191 -114.3
-6.0263462 7.9801726 -116.3
-6.0263462 7.9801726 -114.3
-5 8.6602545 -116.3
-5 8.6602545 -114.3
-3.8978589 9.2090559 -116.3
-3.8978589 9.2090559 -114.3
-2.73663 9.6182566 -116.3
-2.73663 9.6182566 -114.3
-1.5339166 9.8816547 -116.3
-1.5339166 9.8816547 -114.3
-0.30795059 9.9952574 -116.3
-0.30795059 9.9952574 -114.3
0.9226836 9.9573412 -116.3
0.9226836 9.9573412 -114.3
2.1393309 9.7684832 -116.3
2.1393309 9.7684832 -114.3
3.3235481 9.4315443 -116.3
3.3235481 9.4315443 -114.3
4.4573836 8.9516335 -116.3
4.4573836 8.9516335 -114.3
5.5236497 8.3360233 -116.3
5.5236497 8.3360233 -114.3
6.5061831 7.594049 -116.3
6.5061831 7.594049 -114.3
7.3900895 6.7369566 -116.3
7.3900895 6.7369566 -114.3
8.1619692 5.7777386 -116.3
8.1619692 5.7777386 -114.3
8.8101215 4.7309356 -116.3
8.8101215 4.7309356 -114.3
9.3247223 3.6124165 -116.3
9.3247223 3.6124165 -114.3
9.6979694 2.4391372 -116.3
9.6979694 2.4391372 -114.3
9.9242048 1.2288829 -116.3
9.9242048 1.2288829 -114.3
10 2.0052044e-15 -116.3
10 2.8933828e-15 -114.3
