# .PCD v0.7 - Point Cloud Data file format
VERSION 0.7
FIELDS x y z rgb
SIZE 4 4 4 4
TYPE F F F F
COUNT 1 1 1 1
WIDTH 1372
HEIGHT 1
VIEWPOINT 0 0 0 1 0 0 0
POINTS 1372
DATA ascii
-0 -0 0 0
-0 -0 0 0
-0 -0 0 2.7680339e-39
-334.4729 -39.818199 757 2.631078e-41
-331.81836 -39.818199 757 2.5590513e-41
-329.16379 -39.818199 757 2.5594716e-41
-326.50928 -39.818199 757 2.5594716e-41
-323.85468 -39.818199 757 2.6313583e-41
-0 -0 0 2.6313583e-41
-0 -0 0 2.631078e-41
-0 -0 0 2.631078e-41
-0 -0 0 2.5594716e-41
-293.7605 -37.661598 716 2.6313583e-41
-291.24973 -37.661598 716 2.6317786e-41
-288.73895 -37.661598 716 2.5956251e-41
-286.22818 -37.661598 716 2.5234583e-41
-283.71741 -37.661598 716 2.4512914e-41
-281.2066 -37.661598 716 2.4871646e-41
-279.08508 -37.714199 717 2.5950646e-41
-277.728 -37.872002 720 3.2790384e-42
-275.20319 -37.872002 720 3.9796876e-43
-273.43585 -37.9772 722 3.6139487e-42
-270.90402 -37.9772 722 5.4146173e-42
-268.37222 -37.9772 722 1.8230893e-42
-266.20862 -38.0298 723 2.1846243e-42
-264.40265 -38.134998 725 2.1734139e-42
-261.86035 -38.134998 725 1.8132802e-42
-260.39105 -38.292801 728 1.8020698e-42
-258.54657 -38.397999 730 2.5223372e-42
-257.03867 -38.555801 733 3.6013371e-42
-254.81543 -38.608398 734 5.7621393e-42
-252.24156 -38.608398 734 8.6404063e-42
-249.66765 -38.608398 734 8.6404063e-42
-247.09378 -38.608398 734 7.1998715e-42
-245.18614 -38.7136 736 3.9586682e-42
-242.60522 -38.7136 736 3.2412033e-42
-240.02434 -38.7136 736 3.2412033e-42
-238.08865 -38.818802 738 4.6971525e-42
-235.81985 -38.871399 739 1.117167e-39
-233.8596 -38.976601 741 2.555548e-41
-231.26117 -38.976601 741 2.7356149e-41
-228.66273 -38.976601 741 2.7361754e-41
-226.36937 -39.029202 742 2.7723289e-41
-223.76743 -39.029202 742 2.6644289e-41
-221.16548 -39.029202 742 2.6644289e-41
-219.15263 -39.134399 744 2.7717684e-41
-217.12581 -39.239601 746 2.8079219e-41
-214.79736 -39.292198 747 2.8075015e-41
-212.17789 -39.292198 747 2.8435148e-41
-209.55841 -39.292198 747 2.8082021e-41
-207.49297 -39.3974 749 2.8442155e-41
-204.8665 -39.3974 749 2.8442155e-41
-202.51001 -39.450001 750 2.8082021e-41
-200.41302 -39.555199 752 2.8442155e-41
-198.302 -39.6604 754 2.8442155e-41
-195.91745 -39.713001 755 2.7728894e-41
-193.26994 -39.713001 755 2.7728894e-41
-190.62241 -39.713001 755 2.8800887e-41
-188.47282 -39.818199 757 2.9161021e-41
-186.3092 -39.923401 759 2.8087626e-41
-183.64763 -39.923401 759 2.8087626e-41
-181.463 -40.028599 761 2.844776e-41
-178.7944 -40.028599 761 2.844776e-41
-176.12585 -40.028599 761 2.844776e-41
-173.45728 -40.028599 761 2.844776e-41
-171.01312 -40.0812 762 2.844776e-41
-168.7829 -40.186401 764 2.844776e-41
-166.10379 -40.186401 764 2.844776e-41
-163.85251 -40.291599 766 2.844776e-41
-161.16641 -40.291599 766 2.8451964e-41
-158.68718 -40.3442 767 2.8451964e-41
-155.99759 -40.3442 767 2.8805091e-41
-153.30797 -40.3442 767 2.8805091e-41
-151.01111 -40.449402 769 2.8450563e-41
-148.70021 -40.5546 771 2.7370162e-41
-145.99657 -40.5546 771 2.7370162e-41
-143.85049 -40.712399 774 2.7370162e-41
-141.13632 -40.712399 774 2.6291162e-41
-138.42218 -40.712399 774 2.6651295e-41
-136.05867 -40.8176 776 2.5931028e-41
-133.33748 -40.8176 776 2.5931028e-41
-130.95297 -40.922798 778 2.5931028e-41
-128.22478 -40.922798 778 2.5931028e-41
-125.81921 -41.028 780 2.5205155e-41
-123.24181 -41.080601 781 2.5205155e-41
-120.50308 -41.080601 781 2.4845022e-41
-118.06597 -41.185799 783 2.4124754e-41
-115.32024 -41.185799 783 2.2332494e-41
-112.86208 -41.291 785 2.2332494e-41
-110.38987 -41.396198 787 2.3045755e-41
-107.90363 -41.5014 789 2.2325487e-41
-105.13689 -41.5014 789 2.1606621e-41
-102.37012 -41.5014 789 2.0886354e-41
-99.603378 -41.5014 789 2.0890558e-41
-96.836601 -41.5014 789 2.0890558e-41
-94.189064 -41.554001 790 2.052622e-41
-91.881691 -41.7644 794 1.9807354e-41
-89.321815 -41.869598 796 1.9807354e-41
-86.530525 -41.869598 796 1.9807354e-41
-83.739204 -41.869598 796 1.9807354e-41
-81.151276 -41.9748 798 2.052622e-41
-78.549347 -42.080002 800 2.0880748e-41
-75.743996 -42.080002 800 2.0519213e-41
-73.121025 -42.1852 802 2.1959748e-41
-70.396339 -42.237801 803 2.1959748e-41
-67.580475 -42.237801 803 2.2319882e-41
-64.764633 -42.237801 803 2.2319882e-41
-62.103065 -42.342999 805 2.5189741e-41
-59.280216 -42.342999 805 2.5549875e-41
-56.597603 -42.4482 807 2.5554079e-41
-53.900967 -42.553402 809 2.5914213e-41
-51.190327 -42.6586 811 2.6997416e-41
-48.346409 -42.6586 811 2.735755e-41
-45.614731 -42.763802 813 2.1247048e-40
-42.763802 -42.763802 813 2.1247048e-40
-39.912872 -42.763802 813 1.2315031e-40
-37.061966 -42.763802 813 2.1534594e-40
-34.295197 -42.868999 815 4.9336356e-40
-31.591572 -43.079399 819 1.6000713e-39
-28.719601 -43.079399 819 3.9906626e-39
-25.910749 -43.184601 821 5.0970116e-39
-23.031794 -43.184601 821 5.373953e-39
-20.201902 -43.289799 823 6.6643331e-39
-17.358011 -43.395 825 8.2298441e-39
-14.500067 -43.500198 827 9.1521591e-39
-11.628096 -43.6054 829 9.5238241e-39
-8.7210865 -43.6054 829 1.0630172e-38
-5.8140478 -43.6054 829 1.1554265e-38
-2.9070377 -43.6054 829 1.3029396e-38
0 -43.8158 833 1.3027952e-38
2.9210646 -43.8158 833 1.5056256e-38
5.8561559 -43.921001 835 1.5423239e-38
8.7841778 -43.921001 835 1.6805816e-38
11.74031 -44.026199 837 1.7722367e-38
14.710467 -44.131401 839 1.7169194e-38
17.694651 -44.236599 841 1.7907856e-38
20.643768 -44.236599 841 1.8183368e-38
23.648937 -44.341801 843 1.6805824e-38
26.60507 -44.341801 843 1.5887455e-38
29.631334 -44.446999 845 1.7999691e-38
32.671627 -44.5522 847 1.7724179e-38
35.725945 -44.657398 849 1.6989498e-38
38.70306 -44.657398 849 1.6162965e-38
41.680233 -44.657398 849 1.7816006e-38
44.657402 -44.657398 849 1.8367029e-38
47.746788 -44.7626 851 1.6162969e-38
50.730972 -44.7626 851 1.6162969e-38
53.904457 -44.920399 854 1.4599961e-38
56.899166 -44.920399 854 1.4046787e-38
60.034134 -45.0256 856 1.5425045e-38
63.035854 -45.0256 856 1.5056623e-38
66.346161 -45.236 860 1.4874008e-38
69.523155 -45.341202 862 1.570377e-38
72.545906 -45.341202 862 1.3398545e-38
75.744003 -45.4464 864 1.2015609e-38
79.047295 -45.604198 867 1.5972458e-38
82.276947 -45.7094 869 1.4405491e-38
85.520569 -45.814602 871 1.3394212e-38
88.574883 -45.814602 871 1.219567e-38
91.629204 -45.814602 871 1.2658103e-38
95.118347 -46.025002 875 1.1735788e-38
98.186699 -46.025002 875 9.5270401e-39
101.60214 -46.1828 878 9.8032683e-39
104.91946 -46.287998 880 9.5198528e-39
108.00534 -46.287998 880 9.3354616e-39
111.09121 -46.287998 880 8.1380044e-39
114.43658 -46.3932 882 9.4287432e-39
117.52942 -46.3932 882 7.4929755e-39
120.62231 -46.3932 882 7.7692023e-39
124.136 -46.550999 885 7.8603511e-39
127.52697 -46.6562 887 6.4774167e-39
130.63739 -46.6562 887 6.1064776e-39
134.04933 -46.761398 889 5.9220863e-39
137.47536 -46.8666 891 6.6582178e-39
141.07321 -47.024399 894 5.2752834e-39
144.53079 -47.129601 896 5.366393e-39
147.67278 -47.129601 896 4.9054134e-39
150.8147 -47.129601 896 3.8030315e-39
153.95668 -47.129601 896 3.2498592e-39
157.97534 -47.392601 901 3.5235664e-39
161.49254 -47.497799 903 3.3391751e-39
165.20612 -47.655602 906 1.0371725e-39
168.3831 -47.655602 906 1.0371725e-39
171.93887 -47.760799 908 2.0993833e-40
175.12294 -47.760799 908 2.5547072e-41
178.30701 -47.760799 908 2.3746404e-41
181.89082 -47.866001 910 2.1587003e-41
185.69202 -48.0238 913 1.9793341e-41
189.30739 -48.129002 915 1.763394e-41
193.1472 -48.2868 918 1.5482947e-41
196.36633 -48.2868 918 1.3322145e-41
199.58546 -48.2868 918 1.1883011e-41
203.24638 -48.391998 920 1.0082342e-41
207.14581 -48.549801 923 8.2830752e-42
210.83835 -48.654999 925 7.2026741e-42
214.08203 -48.654999 925 6.1250756e-42
217.3257 -48.654999 925 5.7649419e-42
221.7616 -48.917999 930 5.760738e-42
225.74867 -49.075802 933 5.4006043e-42
229.51134 -49.181 935 4.3202032e-42
232.79008 -49.181 935 3.9600695e-42
236.06883 -49.181 935 2.8810696e-42
239.34752 -49.181 935 3.2412033e-42
242.62625 -49.181 935 2.8810696e-42
246.69402 -49.338799 938 1.8020698e-42
250.5163 -49.444 940 1.9618179e-44
254.6226 -49.601799 943 1.6815582e-44
258.74991 -49.759602 946 1.5414283e-44
262.06723 -49.759602 946 1.5414283e-44
265.94562 -49.864799 948 1.5414283e-44
269.26993 -49.864799 948 1.4012985e-44
272.59427 -49.864799 948 7.342804e-43
275.91855 -49.864799 948 7.342804e-43
280.12656 -50.022598 951 2.8810696e-42
284.35562 -50.180401 954 3.2412033e-42
289.20886 -50.443401 959 3.2412033e-42
293.487 -50.6012 962 3.2412033e-42
296.86038 -50.6012 962 3.6139487e-42
300.85797 -50.706402 964 4.6943499e-42
305.18521 -50.864201 967 8.27747e-42
308.57617 -50.864201 967 1.0191223e-40
312.93497 -51.021999 970 1.1152934e-41
316.33636 -51.021999 970 1.3313737e-41
320.72675 -51.179802 973 1.4392737e-41
325.80441 -51.442799 978 1.4392737e-41
329.23395 -51.442799 978 1.3303928e-41
333.68393 -51.600601 981 1.2222125e-41
337.1239 -51.600601 981 1.1863393e-41
340.56396 -51.600601 981 1.3303928e-41
346.108 -51.916199 987 1.4026998e-41
350.27747 -52.0214 989 1.2947998e-41
353.74557 -52.0214 989 1.258366e-41
358.29718 -52.179199 992 1.0782992e-41
361.77579 -52.179199 992 8.6305972e-42
365.25443 -52.179199 992 7.9089285e-42
369.84814 -52.337002 995 4.6733304e-42
374.46295 -52.494801 998 4.3117954e-42
379.09869 -52.652599 1001 3.9516617e-42
382.60889 -52.652599 1001 3.9516617e-42
387.27628 -52.810402 1004 3.2327956e-42
390.797 -52.810402 1004 3.9516617e-42
395.49591 -52.968201 1007 2.5125281e-42
399.0271 -52.968201 1007 1.4349296e-42
402.55832 -52.968201 1007 1.793662e-42
407.29935 -53.125999 1010 2.5125281e-42
413.28174 -53.441601 1016 1.793662e-42
419.30618 -53.757198 1022 1.4349296e-42
422.88998 -53.757198 1022 1.793662e-42
425.22189 -53.5994 1019 2.8726619e-42
428.79523 -53.5994 1019 2.5125281e-42
434.91434 -53.915001 1025 2.5125281e-42
439.79214 -54.0728 1028 3.2285917e-42
444.69089 -54.230598 1031 3.9460565e-42
448.30627 -54.230598 1031 4.6635213e-42
453.23669 -54.388401 1034 3.5873241e-42
458.62997 -54.598801 1038 3.5873241e-43
462.26987 -54.598801 1038 0
467.25629 -54.756599 1041 0
470.90677 -54.756599 1041 0
474.55722 -54.756599 1041 0
478.20767 -54.756599 1041 0
481.85812 -54.756599 1041 4.9958112e-39
485.50848 -54.756599 1041 1.0313991e-39
489.15897 -54.756599 1041 0
495.64981 -55.072201 1047 3.226847e-39
500.75201 -55.23 1050 4.6255755e-39
506.35571 -55.440399 1054 7.1746481e-42
0 -0 0 3.6013371e-42
0 -0 0 2.1608022e-42
0 -0 0 7.1746481e-43
0 -0 0 3.9558656e-42
0 -0 0 4.0115111e-40
0 -0 0 6.777394e-40
0 -0 0 2.6048457e-39
0 -0 0 2.235703e-39
0 -0 0 1.0369048e-40
0 -0 0 1.9588611e-40
0 -0 0 8.2704635e-42
0 -0 0 7.5231791e-40
0 -0 0 1.9417793e-41
1407.9584 -139.8634 2659 1.8337392e-41
1417.2826 -139.8634 2659 1.5466131e-41
1426.6067 -139.8634 2659 1.793662e-42
1447.2715 -140.968 2680 8.2704635e-42
1468.0836 -142.0726 2701 7.5231791e-40
0 -0 0 1.9417793e-41
0 -0 0 1.8337392e-41
0 -0 0 1.5466131e-41
0 -0 0 1.793662e-42
-0 -0 0 0
-0 -0 0 0
-0 -0 0 0
-1329.5702 -118.56041 2415 0
-1321.1017 -118.56041 2415 0
-1312.6331 -118.56041 2415 0
-1313.345 -119.39499 2432 0
-1304.8168 -119.39499 2432 0
-1296.2885 -119.39499 2432 0
-1287.7603 -119.39499 2432 0
-1279.2321 -119.39499 2432 0
-1280.1088 -120.27867 2450 0
-0 -0 0 0
-0 -0 0 0
-0 -0 0 0
-0 -0 0 0
-0 -0 0 0
-0 -0 0 0
-0 -0 0 0
-0 -0 0 0
-0 -0 0 0
-0 -0 0 0
-0 -0 0 0
-0 -0 0 0
-0 -0 0 0
-0 -0 0 0
-0 -0 0 0
-0 -0 0 0
-0 -0 0 0
-0 -0 0 0
-0 -0 0 0
-0 -0 0 0
-0 -0 0 0
-0 -0 0 3.4134033e-39
-334.4729 -37.163654 757 2.5590513e-41
-330.94168 -37.065468 755 2.5590513e-41
-328.29416 -37.065468 755 2.5584907e-41
-325.64661 -37.065468 755 2.5945041e-41
-323.85468 -37.163654 757 2.5950646e-41
-0 -0 0 2.631078e-41
-0 -0 0 2.6313583e-41
-0 -0 0 2.6313583e-41
-296.27127 -35.150829 716 2.6313583e-41
-293.7605 -35.150829 716 2.6313583e-41
-291.24973 -35.150829 716 2.5594716e-41
-288.73895 -35.150829 716 2.6313583e-41
-286.22818 -35.150829 716 2.5594716e-41
-283.71741 -35.150829 716 2.4873048e-41
-281.2066 -35.150829 716 2.5590513e-41
-279.86359 -35.298111 719 1.6588571e-41
-278.49948 -35.445389 722 2.2420775e-44
-275.96765 -35.445389 722 7.4549078e-43
-273.43585 -35.445389 722 7.342804e-43
-270.90402 -35.445389 722 1.4012985e-44
-268.37222 -35.445389 722 1.5414283e-44
-266.20862 -35.494484 723 1.8146815e-42
-264.40265 -35.592667 725 1.4545478e-42
-261.86035 -35.592667 725 1.4545478e-42
-260.39105 -35.739952 728 3.5873241e-42
-258.90073 -35.88723 731 3.2285917e-42
-257.38934 -36.034508 734 3.2412033e-42
-254.81543 -36.034508 734 3.6013371e-42
-252.24156 -36.034508 734 5.0418719e-42
-249.66765 -36.034508 734 5.4020056e-42
-247.09378 -36.034508 734 4.3202032e-42
-245.18614 -36.132694 736 3.239802e-42
-242.60522 -36.132694 736 3.2412033e-42
-240.67656 -36.230881 738 3.6013371e-42
-238.41125 -36.279976 739 7.9187376e-42
-235.81985 -36.279976 739 1.1521476e-41
-233.8596 -36.378162 741 2.6641486e-41
-231.26117 -36.378162 741 2.6641486e-41
-228.66273 -36.378162 741 2.6284155e-41
-226.36937 -36.427258 742 2.6284155e-41
-223.76743 -36.427258 742 2.700162e-41
-221.76161 -36.52544 744 2.7723289e-41
-219.15263 -36.52544 744 2.7005824e-41
-217.41685 -36.672726 747 2.7005824e-41
-214.79736 -36.672726 747 2.7361754e-41
-212.17789 -36.672726 747 2.7361754e-41
-209.55841 -36.672726 747 2.7361754e-41
-207.49297 -36.770908 749 2.8082021e-41
-204.8665 -36.770908 749 2.736876e-41
-203.05003 -36.91819 752 2.736876e-41
-200.94604 -37.016376 754 2.8082021e-41
-198.302 -37.016376 754 2.8442155e-41
-195.91745 -37.065468 755 2.8442155e-41
-193.26994 -37.065468 755 2.8802289e-41
-190.62241 -37.065468 755 2.8442155e-41
-188.47282 -37.163654 757 2.8442155e-41
-186.3092 -37.261841 759 2.8800887e-41
-184.13156 -37.360031 761 2.9161021e-41
-181.463 -37.360031 761 2.844776e-41
-178.7944 -37.360031 761 2.844776e-41
-176.12585 -37.360031 761 2.844776e-41
-173.45728 -37.360031 761 2.844776e-41
-171.01312 -37.409122 762 2.8810696e-41
-168.7829 -37.507309 764 2.8450563e-41
-166.10379 -37.507309 764 2.9161021e-41
-164.06642 -37.654587 767 2.9161021e-41
-161.3768 -37.654587 767 2.9166626e-41
-158.68718 -37.654587 767 2.9166626e-41
-156.40436 -37.752777 769 2.9165225e-41
-153.70772 -37.752777 769 2.8805091e-41
-151.40385 -37.850964 771 2.7731697e-41
-149.08594 -37.94915 773 2.7731697e-41
-146.37527 -37.94915 773 2.736876e-41
-143.85049 -37.998241 774 2.736876e-41
-141.13632 -37.998241 774 2.6651295e-41
-138.42218 -37.998241 774 2.6651295e-41
-136.05867 -38.096428 776 2.664569e-41
-133.33748 -38.096428 776 2.6285557e-41
-130.95297 -38.194614 778 2.6285557e-41
-128.22478 -38.194614 778 2.6285557e-41
-125.81921 -38.292805 780 2.5563888e-41
-123.24181 -38.341896 781 2.4845022e-41
-120.50308 -38.341896 781 2.4131761e-41
-118.06597 -38.440083 783 2.3411493e-41
-115.32024 -38.440083 783 2.2692627e-41
-112.86208 -38.538269 785 2.1610825e-41
-110.38987 -38.636456 787 2.3037347e-41
-107.90363 -38.734642 789 2.3037347e-41
-105.13689 -38.734642 789 2.0890558e-41
-102.37012 -38.734642 789 2.0890558e-41
-99.603378 -38.734642 789 2.1246487e-41
-96.836601 -38.734642 789 2.1246487e-41
-94.189064 -38.783737 790 2.0886354e-41
-91.881691 -38.98011 794 2.052622e-41
-89.321815 -39.078297 796 2.1236678e-41
-86.530525 -39.078297 796 2.0876545e-41
-83.9496 -39.176483 798 2.052622e-41
-81.151276 -39.176483 798 2.052622e-41
-78.549347 -39.27467 800 2.052622e-41
-75.743996 -39.27467 800 2.052622e-41
-73.121025 -39.372856 802 2.0880748e-41
-70.396339 -39.421951 803 2.0880748e-41
-67.580475 -39.421951 803 2.1959748e-41
-64.925941 -39.520134 805 2.1959748e-41
-62.103065 -39.520134 805 2.2680016e-41
-59.427494 -39.618324 807 2.412055e-41
-56.737869 -39.716511 809 2.5193945e-41
-53.900967 -39.716511 809 2.6274346e-41
-51.190327 -39.814697 811 2.6993212e-41
-48.465637 -39.912884 813 2.6993212e-41
-45.614731 -39.912884 813 2.735755e-41
-42.763802 -39.912884 813 2.8439352e-41
-40.011055 -40.01107 815 3.0594549e-41
-37.244312 -40.109257 817 1.2387058e-40
-34.463516 -40.207439 819 1.3191712e-39
-31.591572 -40.207439 819 1.9645406e-39
-28.719601 -40.207439 819 3.4371427e-39
-25.910749 -40.30563 821 4.6356845e-39
-23.031794 -40.30563 821 6.385577e-39
-20.201902 -40.403816 823 6.7539994e-39
-17.400091 -40.600189 827 7.0327527e-39
-14.535134 -40.698376 829 7.2175026e-39
-11.628096 -40.698376 829 8.9728041e-39
-8.7210865 -40.698376 829 9.1575541e-39
-5.8140478 -40.698376 829 1.0356462e-38
-2.9140513 -40.796562 831 1.183195e-38
0 -40.894749 833 1.173829e-38
2.9280779 -40.992935 835 1.3029029e-38
5.8561559 -40.992935 835 1.4041749e-38
8.8052177 -41.091125 837 1.4502726e-38
11.74031 -41.091125 837 1.4683171e-38
14.710467 -41.189308 839 1.6711475e-38
17.694651 -41.287498 841 1.6805816e-38
20.692863 -41.385681 843 1.6805816e-38
23.648937 -41.385681 843 1.2851844e-38
26.66819 -41.483871 845 1.3773798e-38
29.701468 -41.582058 847 1.349252e-38
32.748772 -41.680241 849 1.5703779e-38
35.810104 -41.778431 851 1.7540505e-38
38.794231 -41.778431 851 1.8642547e-38
41.778416 -41.778431 851 1.763018e-38
44.7626 -41.778431 851 1.8918049e-38
47.746788 -41.778431 851 1.7264999e-38
50.909813 -41.925709 854 1.5697313e-38
53.904457 -41.925709 854 1.5333207e-38
57.032417 -42.023899 856 1.5333207e-38
60.1744 -42.122082 858 1.4963331e-38
63.183132 -42.122082 858 1.4963331e-38
66.346161 -42.220272 860 1.4409078e-38
69.684456 -42.416641 864 1.5146644e-38
72.966705 -42.563923 867 1.1191235e-38
76.182335 -42.662109 869 1.1744409e-38
79.411987 -42.760296 871 1.5050482e-38
82.466309 -42.760296 871 1.4958287e-38
85.716942 -42.858482 873 1.3851229e-38
88.778275 -42.858482 873 1.3205859e-38
91.8396 -42.858482 873 1.2194612e-38
95.444466 -43.103951 878 1.2102416e-38
98.523331 -43.103951 878 1.1730739e-38
101.83358 -43.202137 880 1.1546348e-38
105.15791 -43.300323 882 1.1455241e-38
108.2508 -43.300323 882 9.5191326e-39
111.3437 -43.300323 882 9.6102618e-39
114.82583 -43.447605 885 9.2411192e-39
117.92918 -43.447605 885 8.5971861e-39
121.30611 -43.545788 887 8.4124347e-39
124.69707 -43.643978 889 6.1097202e-39
128.10205 -43.742161 891 5.2799595e-39
131.2265 -43.742161 891 5.738774e-39
134.80325 -43.889446 894 5.0008503e-39
138.24683 -43.987629 896 4.1736119e-39
141.70441 -44.085815 898 4.0814163e-39
144.85341 -44.085815 898 4.6302685e-39
148.0024 -44.085815 898 4.1696491e-39
151.15135 -44.085815 898 2.2371562e-39
154.81581 -44.233097 901 2.4215474e-39
158.85201 -44.478561 906 3.7987099e-39
162.02907 -44.478561 906 3.7987099e-39
165.5708 -44.576752 908 2.0495251e-39
168.75481 -44.576752 908 1.3119601e-39
172.3176 -44.674934 910 1.5892672e-39
175.50867 -44.674934 910 1.1282891e-39
179.28886 -44.822216 913 5.7511811e-40
182.89023 -44.920403 915 1.8344398e-41
186.09879 -44.920403 915 1.871294e-41
189.92807 -45.067684 918 1.6192004e-41
193.1472 -45.067684 918 1.3317941e-41
196.79416 -45.165871 920 1.0436871e-41
200.67253 -45.313148 923 1.080261e-41
203.90915 -45.313148 923 6.8425404e-42
207.59465 -45.411335 925 6.1208717e-42
210.83835 -45.411335 925 5.0404706e-42
214.77634 -45.558617 928 3.6013371e-42
218.03053 -45.558617 928 3.2412033e-42
222.47694 -45.804081 933 3.2412033e-42
226.23259 -45.902271 935 2.8810696e-42
230.24774 -46.049549 938 1.4405348e-42
233.537 -46.049549 938 7.2026741e-43
236.82626 -46.049549 938 7.2166871e-43
240.11548 -46.049549 938 0
243.40474 -46.049549 938 9.8090893e-45
247.22002 -46.147736 940 8.4077908e-45
252.11534 -46.442299 946 7.0064923e-45
255.43265 -46.442299 946 7.0064923e-45
259.29694 -46.540482 948 7.0064923e-45
262.62128 -46.540482 948 7.0064923e-45
266.7872 -46.687763 951 0
270.12207 -46.687763 951 0
273.45691 -46.687763 951 8.4077908e-45
277.66486 -46.835045 954 8.4077908e-45
281.59933 -46.933231 956 8.4077908e-45
284.95175 -46.933231 956 9.8090893e-45
289.20886 -47.080509 959 8.4077908e-45
294.09717 -47.325977 964 1.4012985e-44
298.40329 -47.473255 967 1.8020698e-42
301.79425 -47.473255 967 4.6831395e-42
305.18521 -47.473255 967 9.3438582e-42
309.53348 -47.620537 970 1.0424259e-41
312.93497 -47.620537 970 1.1500456e-41
317.31476 -47.767818 973 1.2220724e-41
322.37488 -48.013283 978 1.2943794e-41
325.80441 -48.013283 978 1.2222125e-41
329.23395 -48.013283 978 1.0777386e-41
333.68393 -48.160561 981 8.2564506e-42
337.1239 -48.160561 981 8.6179856e-42
341.60544 -48.307846 984 1.0418654e-41
346.108 -48.455124 987 1.0780189e-41
350.27747 -48.55331 989 9.699788e-42
353.74557 -48.55331 989 8.6179856e-42
358.29718 -48.700588 992 8.2578519e-42
361.77579 -48.700588 992 7.1774507e-42
366.35901 -48.84787 995 5.3809861e-42
370.96329 -48.995152 998 3.2327956e-42
374.46295 -48.995152 998 2.8726619e-42
379.09869 -49.142429 1001 4.6635213e-42
382.60889 -49.142429 1001 5.0222537e-42
387.27628 -49.289707 1004 3.9460565e-42
391.96469 -49.436993 1007 3.2285917e-42
396.67419 -49.58427 1010 2.8698593e-42
400.21585 -49.58427 1010 3.2285917e-42
404.95688 -49.731552 1013 2.8698593e-42
409.71893 -49.87883 1016 2.8698593e-42
415.72238 -50.173393 1022 1.4349296e-42
419.30618 -50.173393 1022 1.4349296e-42
424.13132 -50.320671 1025 2.5111268e-42
427.72568 -50.320671 1025 2.1523944e-42
431.32001 -50.320671 1025 2.5111268e-42
434.91434 -50.320671 1025 2.5111268e-42
439.79214 -50.467949 1028 2.5111268e-42
444.69089 -50.615231 1031 2.1523944e-42
448.30627 -50.615231 1031 0
451.92169 -50.615231 1031 0
456.86258 -50.762508 1034 0
462.26987 -50.958881 1038 0
467.25629 -51.106163 1041 0
470.90677 -51.106163 1041 0
475.9248 -51.253445 1044 0
479.58578 -51.253445 1044 5.5676951e-40
483.24677 -51.253445 1044 3.3417045e-39
486.90768 -51.253445 1044 2.194013e-41
490.56863 -51.253445 1044 7.4829338e-43
497.07001 -51.548004 1050 2.8638547e-39
500.75201 -51.548004 1050 2.6044673e-39
507.79694 -51.891655 1057 8.2508454e-42
0 -0 0 3.6013371e-42
0 -0 0 2.5209359e-42
0 -0 0 7.1746481e-43
0 -0 0 3.0446026e-39
0 -0 0 3.0931001e-40
0 -0 0 5.8625563e-40
0 -0 0 8.6212366e-40
0 -0 0 2.6960982e-41
0 -0 0 1.1883011e-41
0 -0 0 1.0442476e-41
0 -0 0 8.9781193e-42
0 -0 0 1.3061993e-39
0 -0 0 1.7621258e-39
1407.9584 -130.53917 2659 2.223104e-39
1417.2826 -130.53917 2659 6.8159157e-42
1426.6067 -130.53917 2659 6.0984509e-42
1458.6121 -132.6011 2701 8.9781193e-42
0 -0 0 1.3061993e-39
0 -0 0 1.7621258e-39
0 -0 0 2.223104e-39
0 -0 0 6.8159157e-42
0 -0 0 6.0984509e-42
-0 -0 0 0
-0 -0 0 0
-0 -0 0 0
-1329.5702 -110.09181 2415 0
-1321.1017 -110.09181 2415 0
-1312.6331 -110.09181 2415 0
-1313.345 -110.86679 2432 0
-1304.8168 -110.86679 2432 0
-1296.2885 -110.86679 2432 0
-1287.7603 -110.86679 2432 0
-1288.7001 -111.68736 2450 0
-1280.1088 -111.68736 2450 0
-0 -0 0 0
-0 -0 0 0
-0 -0 0 0
-0 -0 0 0
-0 -0 0 0
-0 -0 0 0
-0 -0 0 0
-0 -0 0 0
-0 -0 0 0
-0 -0 0 0
-0 -0 0 0
-0 -0 0 0
-0 -0 0 0
-0 -0 0 0
-0 -0 0 0
-357.7186 -34.964981 767 0
-355.02896 -34.964981 767 0
-352.33936 -34.964981 767 0
-0 -0 0 0
-0 -0 0 0
-0 -0 0 0
-339.35416 -34.737045 762 4.7938196e-39
-334.4729 -34.509113 757 2.4871646e-41
-330.94168 -34.417938 755 2.5590513e-41
-328.29416 -34.417938 755 2.4511513e-41
-325.64661 -34.417938 755 2.4871646e-41
-0 -0 0 2.6313583e-41
-0 -0 0 2.6313583e-41
-0 -0 0 2.5594716e-41
-0 -0 0 2.5594716e-41
-296.68506 -32.685646 717 2.5594716e-41
-293.7605 -32.64006 716 2.6313583e-41
-291.24973 -32.64006 716 2.5594716e-41
-288.73895 -32.64006 716 2.5594716e-41
-286.22818 -32.64006 716 2.5234583e-41
-283.71741 -32.64006 716 2.5594716e-41
-281.59937 -32.685646 717 2.4871646e-41
-279.86359 -32.776817 719 1.8230893e-42
-278.49948 -32.913578 722 2.8810696e-42
-275.96765 -32.913578 722 2.8810696e-42
-273.43585 -32.913578 722 7.1746481e-43
-270.90402 -32.913578 722 0
-268.74393 -32.959164 723 0
-266.94501 -33.050339 725 3.2384008e-42
-265.13205 -33.141514 727 3.2369995e-42
-262.58273 -33.141514 727 2.1579996e-42
-261.10641 -33.278271 730 1.8020698e-42
-259.60907 -33.415031 733 1.4405348e-42
-257.38934 -33.460617 734 7.258726e-43
-254.81543 -33.460617 734 7.258726e-43
-252.24156 -33.460617 734 1.0818024e-42
-249.66765 -33.460617 734 1.0818024e-42
-247.09378 -33.460617 734 1.0818024e-42
-245.18614 -33.551792 736 1.0818024e-42
-242.60522 -33.551792 736 2.8810696e-42
-240.67656 -33.642963 738 3.6013371e-42
-238.41125 -33.688549 739 1.2967616e-41
-235.81985 -33.688549 739 1.1528482e-41
-233.8596 -33.779724 741 2.4845022e-41
-231.26117 -33.779724 741 2.5205155e-41
-228.66273 -33.779724 741 2.5919818e-41
-226.36937 -33.825314 742 2.6279951e-41
-223.76743 -33.825314 742 2.6284155e-41
-221.76161 -33.916485 744 2.6284155e-41
-219.74176 -34.00766 746 2.6284155e-41
-217.41685 -34.053246 747 2.6644289e-41
-214.79736 -34.053246 747 2.7351945e-41
-212.17789 -34.053246 747 2.8073613e-41
-209.55841 -34.053246 747 2.7361754e-41
-207.49297 -34.144417 749 2.7723289e-41
-205.14001 -34.190006 750 2.7361754e-41
-203.05003 -34.281178 752 2.7361754e-41
-200.94604 -34.372349 754 2.8082021e-41
-198.302 -34.372349 754 2.8442155e-41
-195.91745 -34.417938 755 2.736876e-41
-193.26994 -34.417938 755 2.7728894e-41
-190.62241 -34.417938 755 2.8083423e-41
-188.47282 -34.509113 757 2.8083423e-41
-186.3092 -34.600285 759 2.8087626e-41
-184.13156 -34.69146 761 2.7727493e-41
-181.463 -34.69146 761 2.7728894e-41
-178.7944 -34.69146 761 2.736876e-41
-176.12585 -34.69146 761 2.7727493e-41
-173.45728 -34.69146 761 2.8087626e-41
-171.01312 -34.737045 762 2.7731697e-41
-168.7829 -34.828217 764 2.809183e-41
-166.5386 -34.919392 766 2.844776e-41
-164.06642 -34.964981 767 2.844776e-41
-161.3768 -34.964981 767 2.9166626e-41
-159.10097 -35.056149 769 2.9166626e-41
-156.40436 -35.056149 769 2.8810696e-41
-154.10748 -35.147324 771 2.8450563e-41
-151.7966 -35.238499 773 2.7731697e-41
-149.08594 -35.238499 773 2.7370162e-41
-146.37527 -35.238499 773 2.7731697e-41
-143.85049 -35.284084 774 2.7370162e-41
-141.13632 -35.284084 774 2.7370162e-41
-138.42218 -35.284084 774 2.6651295e-41
-136.05867 -35.375259 776 2.7364556e-41
-133.33748 -35.375259 776 2.6644289e-41
-130.95297 -35.466434 778 2.6285557e-41
-128.22478 -35.466434 778 2.5925423e-41
-125.81921 -35.557606 780 2.4852028e-41
-123.24181 -35.603191 781 2.4131761e-41
-120.81168 -35.694366 783 2.4131761e-41
-118.06597 -35.694366 783 2.305136e-41
-115.61479 -35.785538 785 2.2325487e-41
-112.86208 -35.785538 785 2.2687022e-41
-110.6704 -35.967884 789 2.3045755e-41
-107.90363 -35.967884 789 2.1965353e-41
-105.13689 -35.967884 789 2.1613628e-41
-102.37012 -35.967884 789 2.1252093e-41
-99.603378 -35.967884 789 2.0886354e-41
-96.959335 -36.01347 790 2.0886354e-41
-94.427513 -36.104645 792 2.0886354e-41
-91.881691 -36.19582 794 1.9807354e-41
-89.321815 -36.286991 796 1.9796143e-41
-86.747932 -36.378166 798 2.0517812e-41
-83.9496 -36.378166 798 2.1236678e-41
-81.35466 -36.469337 800 2.1236678e-41
-78.745712 -36.560513 802 2.0886354e-41
-75.933357 -36.560513 802 2.052622e-41
-73.212196 -36.606098 803 1.9450023e-41
-70.396339 -36.606098 803 1.9810156e-41
-67.748787 -36.697269 805 2.0522016e-41
-64.925941 -36.697269 805 2.1240882e-41
-62.411648 -36.87962 809 2.2319882e-41
-59.574772 -36.87962 809 2.3040149e-41
-56.878136 -36.970791 811 2.3398882e-41
-54.034218 -36.970791 811 2.4840818e-41
-51.190327 -36.970791 811 2.413036e-41
-48.465637 -37.061966 813 2.4849226e-41
-45.614731 -37.061966 813 2.6993212e-41
-42.869003 -37.153137 815 2.7714881e-41
-40.109245 -37.244312 817 2.8796683e-41
-37.335487 -37.335487 819 2.9877085e-41
-34.463516 -37.335487 819 2.1570327e-40
-31.591572 -37.335487 819 7.6851692e-40
-28.789734 -37.426659 821 2.2414876e-39
-25.910749 -37.426659 821 2.886857e-39
-23.031794 -37.426659 821 4.1743406e-39
-20.250994 -37.609005 825 4.5434833e-39
-17.400091 -37.70018 827 6.2951974e-39
-14.535134 -37.791355 829 7.9547174e-39
-11.628096 -37.791355 829 7.8675384e-39
-8.7210865 -37.791355 829 8.5125491e-39
-5.8280749 -37.882526 831 1.0079154e-38
-2.9210646 -37.973698 833 9.6178162e-39
0 -38.064873 835 1.1827273e-38
2.9280779 -38.064873 835 1.228825e-38
5.8701825 -38.156044 837 1.1736885e-38
8.8052177 -38.156044 837 1.2382254e-38
11.74031 -38.156044 837 1.2287877e-38
14.745534 -38.33839 841 1.2564105e-38
17.736732 -38.429565 843 1.542216e-38
20.741957 -38.520741 845 1.4500564e-38
23.761152 -38.611912 847 1.4872241e-38
26.73131 -38.611912 847 1.4503099e-38
29.841734 -38.794258 851 1.652851e-38
32.82592 -38.794258 851 1.6897293e-38
35.936344 -38.931019 854 1.5516515e-38
38.930992 -38.931019 854 1.7173165e-38
41.925697 -38.931019 854 1.7446868e-38
44.920403 -38.931019 854 1.6893694e-38
48.027321 -39.02219 856 1.7356462e-38
51.148266 -39.113365 858 1.6526701e-38
54.28318 -39.20454 860 1.634304e-38
57.432178 -39.295712 862 1.588242e-38
60.454937 -39.295712 862 1.5974973e-38
63.845894 -39.523643 867 1.6343396e-38
66.886185 -39.523643 867 1.7446511e-38
70.087723 -39.614819 869 1.6063576e-38
73.135033 -39.614819 869 1.4227572e-38
76.357666 -39.70599 871 1.256841e-38
79.59433 -39.797165 873 1.5052291e-38
82.655663 -39.797165 873 1.5144487e-38
85.913307 -39.88834 875 1.4590245e-38
88.981659 -39.88834 875 1.4129269e-38
92.365601 -40.025101 878 1.2473709e-38
95.444466 -40.025101 878 1.2289317e-38
98.747765 -40.116272 880 1.2836019e-38
101.83358 -40.116272 880 1.2006259e-38
105.15791 -40.207443 882 1.1912986e-38
108.619 -40.344208 885 1.1267617e-38
111.72241 -40.344208 885 9.1492767e-39
114.82583 -40.344208 885 1.0624767e-38
118.19569 -40.435379 887 1.0342425e-38
121.85315 -40.617725 891 9.6970554e-39
125.39841 -40.754486 894 9.142095e-39
128.53337 -40.754486 894 8.4045286e-39
131.96291 -40.845661 896 7.39182e-39
135.10483 -40.845661 896 6.377668e-39
138.24683 -40.845661 896 6.4698651e-39
141.70441 -40.936832 898 5.8244957e-39
145.33733 -41.073593 901 4.8089158e-39
148.82646 -41.164764 903 3.7029284e-39
152.49789 -41.301529 906 2.1392082e-39
155.67494 -41.301529 906 1.7707858e-39
158.85201 -41.301529 906 1.6782203e-39
162.38673 -41.3927 908 6.6442847e-40
165.5708 -41.3927 908 9.3850283e-40
169.12653 -41.483875 910 1.0874076e-40
172.3176 -41.483875 910 1.3915721e-39
176.08728 -41.620632 913 7.4620264e-40
179.68163 -41.711807 915 5.6217712e-40
182.89023 -41.711807 915 7.2040754e-42
186.70895 -41.848564 918 7.1998715e-42
189.92807 -41.848564 918 6.1194704e-42
193.56801 -41.939739 920 3.2412033e-42
197.43587 -42.0765 923 3.2412033e-42
200.67253 -42.0765 923 1.8020698e-42
204.351 -42.167675 925 1.4405348e-42
207.59465 -42.167675 925 1.0818024e-42
210.83835 -42.167675 925 7.2166871e-43
214.77634 -42.304432 928 0
218.03053 -42.304432 928 0
222.95386 -42.623539 935 0
226.23259 -42.623539 935 0
230.24774 -42.7603 938 0
233.537 -42.7603 938 0
236.82626 -42.7603 938 0
240.11548 -42.7603 938 0
244.70221 -42.988232 943 0
248.798 -43.124992 946 0
252.11534 -43.124992 946 0
255.97267 -43.216164 948 0
259.29694 -43.216164 948 0
263.45236 -43.352928 951 0
267.62881 -43.489685 954 0
270.97418 -43.489685 954 0
274.31955 -43.489685 954 0
277.66486 -43.489685 954 0
281.59933 -43.58086 956 0
284.95175 -43.58086 956 0
290.11356 -43.854382 962 0
294.09717 -43.945553 964 0
298.40329 -44.082314 967 1.4012985e-45
302.73053 -44.219074 970 1.0818024e-42
306.13202 -44.219074 970 2.8810696e-42
309.53348 -44.219074 970 3.6013371e-42
313.9028 -44.355831 973 5.0278589e-42
317.31476 -44.355831 973 4.6677252e-42
322.37488 -44.583767 978 3.2327956e-42
325.80441 -44.583767 978 3.2327956e-42
330.24387 -44.720528 981 2.5125281e-42
333.68393 -44.720528 981 1.0761972e-42
337.1239 -44.720528 981 1.4349296e-42
340.56396 -44.720528 981 2.8726619e-42
346.108 -44.994049 987 3.2327956e-42
350.27747 -45.08522 989 2.5125281e-42
354.81857 -45.221981 992 2.5111268e-42
358.29718 -45.221981 992 1.793662e-42
361.77579 -45.221981 992 1.0761972e-42
366.35901 -45.358738 995 0
370.96329 -45.495502 998 0
374.46295 -45.495502 998 0
379.09869 -45.632259 1001 3.5873241e-43
383.75558 -45.76902 1004 0
387.27628 -45.76902 1004 3.5873241e-43
390.797 -45.76902 1004 0
397.85242 -46.179302 1013 0
401.40463 -46.179302 1013 0
404.95688 -46.179302 1013 3.5873241e-43
410.92874 -46.45282 1019 0
415.72238 -46.589581 1022 0
420.53705 -46.726337 1025 0
425.37268 -46.863102 1028 0
428.97754 -46.863102 1028 0
432.58243 -46.863102 1028 0
436.18729 -46.863102 1028 0
439.79214 -46.863102 1028 0
443.39694 -46.863102 1028 0
447.0018 -46.863102 1028 0
450.60669 -46.863102 1028 0
454.21158 -46.863102 1028 0
462.26987 -47.31897 1038 7.1746481e-43
467.25629 -47.455727 1041 2.1523944e-42
470.90677 -47.455727 1041 7.1746481e-43
475.9248 -47.592487 1044 0
479.58578 -47.592487 1044 3.6878252e-39
483.24677 -47.592487 1044 4.0770863e-39
486.90768 -47.592487 1044 1.5796838e-41
490.56863 -47.592487 1044 7.1746481e-43
497.07001 -47.866005 1050 4.4311496e-39
502.65967 -48.048355 1054 2.7675645e-41
507.79694 -48.185112 1057 1.1479437e-41
0 -0 0 6.8327313e-42
0 -0 0 6.1124639e-42
0 -0 0 3.9460565e-42
0 -0 0 3.5999358e-39
0 -0 0 1.7790255e-39
0 -0 0 2.0559711e-39
0 -0 0 1.2671802e-40
0 -0 0 2.3358244e-41
0 -0 0 1.1532686e-41
0 -0 0 9.3718841e-42
0 -0 0 1.0076737e-41
0 -0 0 1.0436871e-41
0 -0 0 2.5265411e-42
1407.9584 -121.21497 2659 1.8048724e-42
1417.2826 -121.21497 2659 2.5111268e-42
1426.6067 -121.21497 2659 5.0222537e-42
0 -0 0 1.0076737e-41
0 -0 0 1.0436871e-41
0 -0 0 2.5265411e-42
0 -0 0 1.8048724e-42
0 -0 0 2.5111268e-42
0 -0 0 5.0222537e-42
-0 -0 0 0
-0 -0 0 0
-0 -0 0 0
-1329.5702 -101.62322 2415 0
-1321.1017 -101.62322 2415 0
-1321.8732 -102.33858 2432 0
-1313.345 -102.33858 2432 0
-1304.8168 -102.33858 2432 0
-1296.2885 -102.33858 2432 0
-1297.2914 -103.09602 2450 0
-1288.7001 -103.09602 2450 0
-1280.1088 -103.09602 2450 0
-1271.5173 -103.09602 2450 0
-0 -0 0 0
-0 -0 0 0
-0 -0 0 0
-0 -0 0 0
-0 -0 0 0
-0 -0 0 0
-0 -0 0 0
-0 -0 0 0
-0 -0 0 0
-0 -0 0 0
-0 -0 0 0
-0 -0 0 0
-0 -0 0 0
-0 -0 0 0
-357.7186 -32.275368 767 0
-355.02896 -32.275368 767 0
-352.33936 -32.275368 767 0
-0 -0 0 0
-0 -0 0 0
-342.02628 -32.064968 762 0
-339.35416 -32.064968 762 5.1622546e-39
-336.24026 -32.022888 761 2.4871646e-41
-332.69501 -31.938726 759 2.4871646e-41
-328.29416 -31.770407 755 2.4511513e-41
-325.64661 -31.770407 755 2.523178e-41
-0 -0 0 2.5594716e-41
-0 -0 0 2.5594716e-41
-0 -0 0 2.5594716e-41
-0 -0 0 2.5594716e-41
-296.68506 -30.171368 717 2.5950646e-41
-293.7605 -30.129286 716 2.5950646e-41
-291.24973 -30.129286 716 2.4880054e-41
-288.73895 -30.129286 716 2.4880054e-41
-286.22818 -30.129286 716 2.5234583e-41
-284.11365 -30.171368 717 2.595485e-41
-281.59937 -30.171368 717 1.3710304e-41
-280.25284 -30.297606 720 2.3822074e-44
-278.49948 -30.381769 722 1.5414283e-44
-275.96765 -30.381769 722 1.4545478e-42
-273.43585 -30.381769 722 7.2166871e-43
-271.27927 -30.423847 723 0
-268.74393 -30.423847 723 7.1746481e-43
-266.94501 -30.508007 725 2.5195346e-42
-265.13205 -30.592169 727 2.8810696e-42
-262.94391 -30.634247 728 1.0804011e-42
-262.17944 -30.844648 733 1.0818024e-42
-259.60907 -30.844648 733 1.0818024e-42
-257.38934 -30.886726 734 1.4405348e-42
-254.81543 -30.886726 734 1.4405348e-42
-252.24156 -30.886726 734 1.4405348e-42
-249.66765 -30.886726 734 1.8020698e-42
-247.09378 -30.886726 734 3.657389e-43
-245.18614 -30.970888 736 2.1650061e-42
-243.26448 -31.055048 738 2.8810696e-42
-240.67656 -31.055048 738 3.2412033e-42
-238.41125 -31.097128 739 1.1878807e-41
-236.45805 -31.18129 741 1.6201813e-41
-233.8596 -31.18129 741 2.6272945e-41
-231.26117 -31.18129 741 2.6272945e-41
-228.66273 -31.18129 741 2.5914213e-41
-226.36937 -31.223368 742 2.6274346e-41
-223.76743 -31.223368 742 2.5919818e-41
-221.76161 -31.307528 744 2.6279951e-41
-219.74176 -31.391689 746 2.6993212e-41
-217.41685 -31.433769 747 2.6993212e-41
-214.79736 -31.433769 747 2.6993212e-41
-212.17789 -31.433769 747 2.6993212e-41
-209.55841 -31.433769 747 2.6284155e-41
-207.49297 -31.517927 749 2.7364556e-41
-205.14001 -31.560007 750 2.736876e-41
-203.05003 -31.644169 752 2.736876e-41
-200.94604 -31.728327 754 2.7723289e-41
-198.302 -31.728327 754 2.7723289e-41
-195.91745 -31.770407 755 2.7723289e-41
-193.26994 -31.770407 755 2.7361754e-41
-191.12737 -31.854568 757 2.8082021e-41
-188.97078 -31.938726 759 2.8082021e-41
-186.80014 -32.022888 761 2.8082021e-41
-184.13156 -32.022888 761 2.8082021e-41
-181.463 -32.022888 761 2.8800887e-41
-178.7944 -32.022888 761 2.8800887e-41
-176.12585 -32.022888 761 2.844776e-41
-173.45728 -32.022888 761 2.8087626e-41
-171.01312 -32.064968 762 2.844776e-41
-168.7829 -32.149128 764 2.8807894e-41
-166.5386 -32.233288 766 2.9165225e-41
-164.06642 -32.275368 767 2.9165225e-41
-161.79761 -32.359528 769 2.8450563e-41
-159.10097 -32.359528 769 2.8450563e-41
-156.81114 -32.443687 771 2.8450563e-41
-154.50723 -32.527847 773 2.7731697e-41
-151.99298 -32.569927 774 2.8087626e-41
-149.27881 -32.569927 774 2.844776e-41
-146.56464 -32.569927 774 2.7731697e-41
-143.85049 -32.569927 774 2.7370162e-41
-141.50102 -32.654091 776 2.7370162e-41
-138.77986 -32.654091 776 2.6651295e-41
-136.05867 -32.654091 776 2.6291162e-41
-133.68114 -32.738247 778 2.5931028e-41
-131.28961 -32.822407 780 2.5931028e-41
-128.71922 -32.864491 781 2.5212162e-41
-125.98052 -32.864491 781 2.5212162e-41
-123.873 -33.032806 785 2.4852028e-41
-121.12026 -33.032806 785 2.4482085e-41
-118.36755 -33.032806 785 2.3761818e-41
-116.20392 -33.201126 789 2.3045755e-41
-113.58095 -33.243206 790 2.3045755e-41
-110.81067 -33.243206 790 2.3042952e-41
-108.0404 -33.243206 790 2.2322685e-41
-105.27015 -33.243206 790 2.2319882e-41
-102.49986 -33.243206 790 2.1959748e-41
-99.729614 -33.243206 790 2.0891959e-41
-97.204803 -33.32737 792 1.9812959e-41
-94.665962 -33.411526 794 2.052622e-41
-92.113129 -33.495689 796 1.9807354e-41
-89.321815 -33.495689 796 2.0157678e-41
-86.747932 -33.579849 798 2.0517812e-41
-84.160004 -33.664005 800 2.0876545e-41
-81.558052 -33.748169 802 2.1236678e-41
-78.843903 -33.790249 803 2.0880748e-41
-76.028038 -33.790249 803 2.0880748e-41
-73.212196 -33.790249 803 1.9450023e-41
-70.571671 -33.874409 805 1.9810156e-41
-67.917114 -33.958569 807 2.0880748e-41
-65.248558 -34.042728 809 2.0519213e-41
-62.565945 -34.126888 811 2.2319882e-41
-59.722054 -34.126888 811 2.2680016e-41
-57.018402 -34.211048 813 2.2325487e-41
-54.167473 -34.211048 813 2.340729e-41
-51.316566 -34.211048 813 2.4831009e-41
-48.465637 -34.211048 813 2.591141e-41
-45.726948 -34.295208 815 2.6274346e-41
-42.974201 -34.379368 817 2.7714881e-41
-40.207432 -34.463528 819 2.8079219e-41
-37.426662 -34.547688 821 2.8079219e-41
-34.547676 -34.547688 821 2.9877085e-41
-31.66872 -34.547688 821 2.1606901e-40
-28.789734 -34.547688 821 4.9192302e-40
-25.973871 -34.631847 823 2.24364e-39
-23.144007 -34.716011 825 2.7042524e-39
-20.300089 -34.800167 827 3.6262087e-39
-17.442173 -34.884327 829 6.0175245e-39
-14.570201 -34.968491 831 6.7550896e-39
-11.65615 -34.968491 831 7.4044036e-39
-8.7631664 -35.052647 833 8.4181968e-39
-5.8421011 -35.052647 833 1.0167377e-38
-2.9280779 -35.13681 835 1.0627997e-38
0 -35.22097 837 1.1273009e-38
2.9350913 -35.22097 837 1.1549956e-38
5.8842096 -35.305126 839 1.2287155e-38
8.8262577 -35.305126 839 1.2287155e-38
11.796416 -35.38929 841 1.2102772e-38
14.780601 -35.473446 843 1.36701e-38
17.778812 -35.55761 845 1.3858798e-38
20.79105 -35.641769 847 1.5149537e-38
23.817257 -35.725925 849 1.3120174e-38
26.85755 -35.810089 851 1.5425425e-38
29.946934 -35.936329 854 1.496407e-38
33.018787 -36.020489 856 1.5977863e-38
36.020504 -36.020489 856 1.6252646e-38
39.022163 -36.020489 856 1.79997e-38
42.023884 -36.020489 856 1.864255e-38
45.0256 -36.020489 856 1.8181929e-38
48.13953 -36.104649 858 1.754051e-38
51.26749 -36.188808 860 1.754051e-38
54.40942 -36.272968 862 1.9193198e-38
57.432178 -36.272968 862 1.9377232e-38
60.805603 -36.483368 867 1.8550709e-38
63.993176 -36.567532 869 1.7537273e-38
67.040482 -36.567532 869 1.7075216e-38
70.087723 -36.567532 869 1.6430205e-38
73.303352 -36.651688 871 1.6610998e-38
76.533005 -36.735847 873 1.6518802e-38
79.59433 -36.735847 873 1.4491944e-38
82.845032 -36.820011 875 1.3661825e-38
86.207878 -36.946247 878 1.1083235e-38
89.286743 -36.946247 878 9.8846921e-39
92.576004 -37.030411 880 7.4022568e-39
95.66188 -37.030411 880 6.111518e-39
98.747765 -37.030411 880 6.7514812e-39
102.06502 -37.114567 882 5.737688e-39
105.51559 -37.24081 885 5.0887201e-39
108.619 -37.24081 885 3.7979813e-39
111.9749 -37.32497 887 4.8760142e-40
115.08532 -37.32497 887 1.9420595e-41
118.46219 -37.40913 889 2.120585e-41
122.26343 -37.61953 894 1.148224e-41
125.67894 -37.70369 896 6.1012535e-42
128.82092 -37.70369 896 2.1523944e-42
132.25746 -37.787849 898 3.5873241e-43
135.40642 -37.787849 898 0
138.5554 -37.787849 898 1.4349296e-42
141.70441 -37.787849 898 1.4349296e-42
145.33733 -37.914089 901 1.4349296e-42
148.82646 -37.998249 903 1.4349296e-42
152.49789 -38.124489 906 7.2166871e-43
156.01862 -38.208649 908 7.2166871e-43
159.20267 -38.208649 908 1.4012985e-44
162.38673 -38.208649 908 1.1210388e-44
165.93549 -38.292809 910 1.5414283e-44
169.12653 -38.292809 910 1.5414283e-44
172.88568 -38.419048 913 7.258726e-43
176.47301 -38.503208 915 7.258726e-43
179.68163 -38.503208 915 5.6051939e-45
183.48987 -38.629448 918 3.657389e-43
186.70895 -38.629448 918 7.258726e-43
190.34186 -38.713608 920 7.258726e-43
194.1992 -38.839848 923 3.657389e-43
197.86369 -38.924011 925 3.657389e-43
201.10736 -38.924011 925 5.6051939e-45
204.351 -38.924011 925 2.8025969e-45
207.59465 -38.924011 925 0
211.52214 -39.050247 928 0
214.77634 -39.050247 928 0
218.50043 -39.134411 930 0
222.47694 -39.260651 933 0
226.23259 -39.34481 935 0
230.24774 -39.47105 938 0
233.537 -39.47105 938 0
237.33122 -39.55521 940 0
240.62746 -39.55521 940 0
244.70221 -39.68145 943 0
248.798 -39.80769 946 0
252.11534 -39.80769 946 0
255.97267 -39.89185 948 0
259.29694 -39.89185 948 0
263.45236 -40.018089 951 0
267.62881 -40.144329 954 0
270.97418 -40.144329 954 0
274.31955 -40.144329 954 0
277.66486 -40.144329 954 0
281.59933 -40.228489 956 0
285.84595 -40.354729 959 0
290.11356 -40.480968 962 0
295.01239 -40.691368 967 0
298.40329 -40.691368 967 0
302.73053 -40.817608 970 0
306.13202 -40.817608 970 0
309.53348 -40.817608 970 0
313.9028 -40.943851 973 0
317.96698 -41.028011 975 0
322.37488 -41.154251 978 0
325.80441 -41.154251 978 0
329.23395 -41.154251 978 0
333.68393 -41.280491 981 0
337.1239 -41.280491 981 0
340.56396 -41.280491 981 3.5873241e-43
346.108 -41.532967 987 3.5873241e-43
350.27747 -41.61713 989 3.5873241e-43
354.81857 -41.74337 992 1.4349296e-42
358.29718 -41.74337 992 1.793662e-42
361.77579 -41.74337 992 0
366.35901 -41.86961 995 1.4349296e-42
370.96329 -41.99585 998 1.4349296e-42
375.58859 -42.122089 1001 1.0761972e-42
379.09869 -42.122089 1001 2.8698593e-42
383.75558 -42.248329 1004 2.1523944e-42
387.27628 -42.248329 1004 3.9460565e-42
390.797 -42.248329 1004 3.9460565e-42
452.83694 -48.51825 1153 2.1523944e-42
402.59335 -42.753288 1016 2.1523944e-42
406.15616 -42.753288 1016 1.4349296e-42
413.34836 -43.132011 1025 3.2285917e-42
459.65387 -47.550411 1130 3.2285917e-42
463.61646 -47.550411 1130 3.5873241e-42
426.61401 -43.384487 1031 5.3809861e-42
428.97754 -43.258251 1028 4.6635213e-42
431.32001 -43.132011 1025 4.3047889e-42
434.91434 -43.132011 1025 4.3047889e-42
439.79214 -43.258251 1028 6.8243235e-42
443.39694 -43.258251 1028 6.8243235e-42
447.0018 -43.258251 1028 2.855594e-40
450.60669 -43.258251 1028 8.6109791e-42
454.21158 -43.258251 1028 2.1523944e-42
484.09186 -45.740971 1087 2.8698593e-42
487.90356 -45.740971 1087 4.6649226e-42
474.97803 -44.18401 1050 2.5111268e-42
477.29242 -44.05777 1047 0
480.9639 -44.05777 1047 3.7800208e-39
484.63541 -44.05777 1047 4.6284622e-39
488.30685 -44.05777 1047 8.6095778e-42
491.97833 -44.05777 1047 1.3829134e-39
497.07001 -44.18401 1050 7.4674607e-39
504.09036 -44.478573 1057 2.6610658e-41
0 -0 0 7.5333805e-42
0 -0 0 4.3117954e-42
0 -0 0 5.3935978e-42
0 -0 0 1.386149e-39
0 -0 0 4.7970272e-39
0 -0 0 1.7790255e-39
0 -0 0 2.3321993e-39
0 -0 0 3.3820338e-41
0 -0 0 1.7252787e-41
0 -0 0 1.0452285e-41
0 -0 0 7.9313493e-42
0 -0 0 1.4844781e-39
0 -0 0 6.4669924e-42
0 -0 0 3.2327956e-42
1407.9584 -111.89074 2659 3.5873241e-43
1417.2826 -111.89074 2659 3.5873241e-43
1437.8735 -112.77443 2680 1.0177477e-39
0 -0 0 1.4844781e-39
0 -0 0 6.4669924e-42
0 -0 0 3.2327956e-42
0 -0 0 3.5873241e-43
0 -0 0 3.5873241e-43
0 -0 0 1.0177477e-39
-0 -0 0 0
-0 -0 0 0
-0 -0 0 0
-1329.5702 -93.154572 2415 0
-1321.1017 -93.154572 2415 0
-1321.8732 -93.810318 2432 0
-1313.345 -93.810318 2432 0
-1304.8168 -93.810318 2432 0
-1296.2885 -93.810318 2432 0
-1297.2914 -94.504639 2450 0
-1288.7001 -94.504639 2450 0
-1280.1088 -94.504639 2450 0
-1271.5173 -94.504639 2450 0
-0 -0 0 0
-0 -0 0 0
-0 -0 0 0
-0 -0 0 0
-0 -0 0 0
-0 -0 0 5.6051939e-45
-0 -0 0 5.6051939e-45
-0 -0 0 5.6051939e-45
-0 -0 0 2.8025969e-45
-0 -0 0 0
-0 -0 0 0
-0 -0 0 0
-0 -0 0 0
-0 -0 0 0
-358.65137 -29.662884 769 0
-355.95471 -29.662884 769 0
-353.25812 -29.662884 769 0
-347.37042 -29.39287 762 0
-344.69833 -29.39287 762 0
-342.02628 -29.39287 762 0
-339.35416 -29.39287 762 5.1647615e-39
-336.24026 -29.354296 761 2.3431112e-41
-331.81836 -29.200005 757 2.4511513e-41
-329.16379 -29.200005 757 2.4871646e-41
-0 -0 0 2.5590513e-41
-0 -0 0 2.5950646e-41
-0 -0 0 2.5590513e-41
-0 -0 0 2.5594716e-41
-0 -0 0 2.5594716e-41
-296.68506 -27.657072 717 2.5594716e-41
-293.7605 -27.6185 716 2.5594716e-41
-291.24973 -27.6185 716 2.5594716e-41
-288.73895 -27.6185 716 2.5594716e-41
-286.22818 -27.6185 716 2.5590513e-41
-284.11365 -27.657072 717 2.2350711e-41
-282.38486 -27.734217 719 1.9618179e-44
-280.25284 -27.772791 720 1.821688e-44
-278.49948 -27.849937 722 1.4405348e-42
-275.96765 -27.849937 722 2.5223372e-42
-273.43585 -27.849937 722 0
-271.27927 -27.888512 723 0
-269.48737 -27.965658 725 0
-266.94501 -27.965658 725 1.0789998e-42
-265.49673 -28.081379 728 7.342804e-43
-263.66629 -28.158525 730 3.7414669e-43
-262.53711 -28.312817 734 2.1523944e-42
-259.96326 -28.312817 734 2.5111268e-42
-257.38934 -28.312817 734 1.4405348e-42
-254.81543 -28.312817 734 1.4405348e-42
-252.24156 -28.312817 734 1.4405348e-42
-249.66765 -28.312817 734 1.8020698e-42
-247.09378 -28.312817 734 1.8020698e-42
-245.18614 -28.389963 736 1.8020698e-42
-243.26448 -28.467112 738 1.8020698e-42
-240.67656 -28.467112 738 2.5223372e-42
-238.41125 -28.505684 739 1.0798406e-41
-236.45805 -28.582832 741 1.2959208e-41
-233.8596 -28.582832 741 2.5212162e-41
-231.26117 -28.582832 741 2.4490493e-41
-228.97131 -28.621405 742 2.5195346e-41
-226.36937 -28.621405 742 2.6274346e-41
-223.76743 -28.621405 742 2.4840818e-41
-221.76161 -28.698553 744 2.4840818e-41
-219.74176 -28.7757 746 2.5554079e-41
-217.41685 -28.81427 747 2.6274346e-41
-214.79736 -28.81427 747 2.6274346e-41
-212.74599 -28.891417 749 2.6993212e-41
-210.11948 -28.891417 749 2.6279951e-41
-207.76999 -28.929991 750 2.6279951e-41
-205.68706 -29.007137 752 2.7361754e-41
-203.59006 -29.084284 754 2.7361754e-41
-201.21255 -29.122858 755 2.7723289e-41
-198.565 -29.122858 755 2.7361754e-41
-196.43645 -29.200005 757 2.7361754e-41
-193.78192 -29.200005 757 2.7361754e-41
-192.13728 -29.354296 761 2.7361754e-41
-189.46872 -29.354296 761 2.7361754e-41
-187.04561 -29.39287 762 2.7361754e-41
-184.13156 -29.354296 761 2.8082021e-41
-181.463 -29.354296 761 2.8082021e-41
-178.7944 -29.354296 761 2.8082021e-41
-176.3573 -29.39287 762 2.772469e-41
-173.68521 -29.39287 762 2.8446359e-41
-171.46196 -29.470016 764 2.8805091e-41
-169.44565 -29.585737 767 2.8805091e-41
-166.75603 -29.585737 767 2.8450563e-41
-164.49425 -29.662884 769 2.8450563e-41
-161.79761 -29.662884 769 2.8805091e-41
-159.92854 -29.817179 773 2.8805091e-41
-157.21791 -29.817179 773 2.8805091e-41
-154.70712 -29.855753 774 2.8443556e-41
-151.99298 -29.855753 774 2.8443556e-41
-149.66454 -29.932896 776 2.8443556e-41
-146.94336 -29.932896 776 2.7370162e-41
-144.2222 -29.932896 776 2.7370162e-41
-141.50102 -29.932896 776 2.7370162e-41
-139.13754 -30.010044 778 2.6651295e-41
-136.40933 -30.010044 778 2.6651295e-41
-134.19662 -30.125765 781 2.6291162e-41
-131.79457 -30.202911 783 2.6285557e-41
-129.7081 -30.357204 787 2.5925423e-41
-127.27098 -30.434353 789 2.5563888e-41
-124.5042 -30.434353 789 2.5563888e-41
-121.73743 -30.434353 789 2.4126156e-41
-118.97069 -30.434353 789 2.3766022e-41
-116.20392 -30.434353 789 2.3405888e-41
-113.58095 -30.472923 790 2.3045755e-41
-111.0912 -30.55007 792 2.3042952e-41
-108.31392 -30.55007 792 2.196115e-41
-105.53664 -30.55007 792 2.1236678e-41
