# .PCD v0.7 - Point Cloud Data file format
VERSION 0.7
FIELDS x y z
SIZE 4 4 4
TYPE F F F
COUNT 1 1 1
WIDTH 823
HEIGHT 1
VIEWPOINT 0 0 0 1 0 0 0
POINTS 823
DATA ascii
-139.965 -155.61 226.69499
139.965 -155.61 226.69499
-139.965 -157.70999 226.69499
139.965 -157.70999 226.69499
-139.965 -155.61 -226.69499
139.965 -155.61 -226.69499
-139.965 -157.70999 -226.69499
139.965 -157.70999 -226.69499
-139.965 157.70999 226.69499
139.965 157.70999 226.69499
-139.965 155.61 226.69499
139.965 155.61 226.69499
-139.965 157.70999 -226.69499
139.965 157.70999 -226.69499
-139.965 155.61 -226.69499
139.965 155.61 -226.69499
-139.965 156.66 227.745
139.965 156.66 227.745
-139.965 -156.66 227.745
139.965 -156.66 227.745
-139.965 156.66 225.645
139.965 156.66 225.645
-139.965 -156.66 225.645
139.965 -156.66 225.645
138.91499 156.66 226.69499
141.01498 156.66 226.69499
138.91499 -156.66 226.69499
141.01498 -156.66 226.69499
138.91499 156.66 -226.69499
141.01498 156.66 -226.69499
138.91499 -156.66 -226.69499
141.01498 -156.66 -226.69499
-141.01498 156.66 226.69499
-138.91499 156.66 226.69499
-141.01498 -156.66 226.69499
-138.91499 -156.66 226.69499
-141.01498 156.66 -226.69499
-138.91499 156.66 -226.69499
-141.01498 -156.66 -226.69499
-138.91499 -156.66 -226.69499
142.065 -4.6629365e-16 -1.6941082e-06
139.965 4.6629365e-16 -1.6690659e-06
142.065 -4.6629365e-16 10.499997
139.965 4.6629365e-16 10.499997
142.065 -4.6629365e-16 10.499997
139.965 4.6629365e-16 10.499997
142.065 -1.290327 10.420413
139.965 -1.290327 10.420413
142.065 -2.561094 10.182865
139.965 -2.561094 10.182865
142.065 -3.7930372 9.7909555
139.965 -3.7930372 9.7909555
142.065 -4.9674821 9.2506256
139.965 -4.9674821 9.2506256
142.065 -6.0666251 8.5700655
139.965 -6.0666251 8.5700655
142.065 -7.0738039 7.7595921
139.965 -7.0738039 7.7595921
142.065 -7.9737511 6.8314905
139.965 -7.9737511 6.8314905
142.065 -8.7528238 5.7998304
139.965 -8.7528238 5.7998304
142.065 -9.3992147 4.6802511
139.965 -9.3992147 4.6802511
142.065 -9.903121 3.4897237
139.965 -9.903121 3.4897237
142.065 -10.256907 2.2462955
139.965 -10.256907 2.2462955
142.065 -10.455208 0.96881604
139.965 -10.455208 0.96881604
142.065 -10.49502 -0.3233498
139.965 -10.49502 -0.32334977
142.065 -10.375737 -1.6106141
139.965 -10.375737 -1.6106139
142.065 -10.099169 -2.8734632
139.965 -10.099169 -2.8734632
142.065 -9.669508 -4.0927534
139.965 -9.669508 -4.0927534
142.065 -9.0932665 -5.2500014
139.965 -9.0932665 -5.2500014
142.065 -8.3791809 -6.3276649
139.965 -8.3791809 -6.3276649
142.065 -7.5380745 -7.3094077
139.965 -7.5380745 -7.3094077
142.065 -6.5826998 -8.1803474
139.965 -6.5826998 -8.1803474
142.065 -5.5275378 -8.9272814
139.965 -5.5275378 -8.9272814
142.065 -4.3885837 -9.538887
139.965 -4.3885837 -9.538887
142.065 -3.1831031 -10.005893
139.965 -3.1831031 -10.005893
142.065 -1.9293698 -10.321219
139.965 -1.9293698 -10.321219
142.065 -0.64638948 -10.480086
139.965 -0.64638948 -10.480086
142.065 0.64638948 -10.480086
139.965 0.64638948 -10.480086
142.065 1.9293698 -10.321219
139.965 1.9293698 -10.321219
142.065 3.1831031 -10.005893
139.965 3.1831031 -10.005893
142.065 4.3885837 -9.538887
139.965 4.3885837 -9.538887
142.065 5.5275378 -8.9272814
139.965 5.5275378 -8.9272814
142.065 6.5826998 -8.1803474
139.965 6.5826998 -8.1803474
142.065 7.5380745 -7.3094077
139.965 7.5380745 -7.3094077
142.065 8.3791809 -6.3276649
139.965 8.3791809 -6.3276649
142.065 9.0932665 -5.2500014
139.965 9.0932665 -5.2500014
142.065 9.669508 -4.0927534
139.965 9.669508 -4.0927534
142.065 10.099169 -2.8734632
139.965 10.099169 -2.8734632
142.065 10.375737 -1.6106141
139.965 10.375737 -1.6106139
142.065 10.49502 -0.3233498
139.965 10.49502 -0.32334977
142.065 10.455208 0.96881604
139.965 10.455208 0.96881604
142.065 10.256907 2.2462955
139.965 10.256907 2.2462955
142.065 9.903121 3.4897237
139.965 9.903121 3.4897237
142.065 9.3992147 4.6802511
139.965 9.3992147 4.6802511
142.065 8.7528238 5.7998304
139.965 8.7528238 5.7998304
142.065 7.9737511 6.8314905
139.965 7.9737511 6.8314905
142.065 7.0738039 7.7595921
139.965 7.0738039 7.7595921
142.065 6.0666251 8.5700655
139.965 6.0666251 8.5700655
142.065 4.9674821 9.2506256
139.965 4.9674821 9.2506256
142.065 3.7930372 9.7909555
139.965 3.7930372 9.7909555
142.065 2.561094 10.182865
139.965 2.561094 10.182865
142.065 1.290327 10.420413
139.965 1.290327 10.420413
142.065 2.1054645e-15 10.499997
139.965 3.0380518e-15 10.499997
-46.654999 -156.31 226.69499
46.654999 -157.00999 226.69499
-46.654999 -156.31 -226.69499
46.654999 -157.00999 -226.69499
-46.654999 -155.61 75.564995
46.654999 -155.61 -75.564995
-46.654999 -157.70999 75.564995
46.654999 -157.70999 -75.564995
-139.965 -156.31 75.564995
-139.965 -157.00999 -75.564995
139.965 -156.31 75.564995
139.965 -157.00999 -75.564995
-46.654999 157.00999 226.69499
46.654999 156.31 226.69499
-46.654999 157.00999 -226.69499
46.654999 156.31 -226.69499
-46.654999 157.70999 75.564995
46.654999 157.70999 -75.564995
-46.654999 155.61 75.564995
46.654999 155.61 -75.564995
-139.965 157.00999 75.564995
-139.965 156.31 -75.564995
139.965 157.00999 75.564995
139.965 156.31 -75.564995
-46.654999 52.220001 227.745
46.654999 -52.220001 227.745
-46.654999 52.220001 225.645
46.654999 -52.220001 225.645
-46.654999 156.66 227.045
46.654999 156.66 226.34502
-46.654999 -156.66 227.045
46.654999 -156.66 226.34502
-139.965 52.220001 227.045
-139.965 -52.220001 226.34502
139.965 52.220001 227.045
139.965 -52.220001 226.34502
139.61499 52.220001 226.69499
140.31499 -52.220001 226.69499
139.61499 52.220001 -226.69499
140.31499 -52.220001 -226.69499
139.61499 156.66 75.564995
140.31499 156.66 -75.564995
139.61499 -156.66 75.564995
140.31499 -156.66 -75.564995
138.91499 52.220001 75.564995
138.91499 -52.220001 -75.564995
141.01498 52.220001 75.564995
141.01498 -52.220001 -75.564995
-140.31499 52.220001 226.69499
-139.61499 -52.220001 226.69499
-140.31499 52.220001 -226.69499
-139.61499 -52.220001 -226.69499
-140.31499 156.66 75.564995
-139.61499 156.66 -75.564995
-140.31499 -156.66 75.564995
-139.61499 -156.66 -75.564995
-141.01498 52.220001 75.564995
-141.01498 -52.220001 -75.564995
-138.91499 52.220001 75.564995
-138.91499 -52.220001 -75.564995
140.66499 1.5543122e-16 10.499997
142.065 -0.43010899 6.9734693
139.965 -0.43010899 6.9734693
141.36501 -0.43010899 10.473469
140.66499 -0.86021799 10.446941
142.065 -1.2838069 6.8677583
139.965 -1.2838069 6.8677583
141.36501 -1.7139159 10.34123
140.66499 -2.1375048 10.262048
142.065 -2.1180437 6.6579399
139.965 -2.1180437 6.6579399
141.36501 -2.9717417 10.052228
140.66499 -3.3823893 9.9215918
142.065 -2.9201729 6.3471932
139.965 -2.9201729 6.3471932
141.36501 -4.1845188 9.6108456
140.66499 -4.5760002 9.4307356
142.065 -3.6780357 5.9402299
139.965 -3.6780357 5.9402299
141.36501 -5.3338628 9.0237722
140.66499 -5.7002444 8.7969179
142.065 -4.3801427 5.4432182
139.965 -4.3801427 5.4432182
141.36501 -6.4023514 8.2999077
140.66499 -6.7380776 8.0297499
142.065 -5.0158515 4.8636937
139.965 -5.0158515 4.8636937
141.36501 -7.3737864 7.4502244
140.66499 -7.6737685 7.1408577
142.065 -5.5755248 4.2104397
139.965 -5.5755248 4.2104397
141.36501 -8.2334414 6.4876037
140.66499 -8.4931326 6.1437173
142.065 -6.0506797 3.4933598
139.965 -6.0506797 3.4933598
141.36501 -8.9682875 5.4266372
140.66499 -9.1837511 5.0534444
142.065 -6.4341121 2.7233245
139.965 -6.4341121 2.7233245
141.36501 -9.5671835 4.2834086
140.66499 -9.7351522 3.8865662
142.065 -6.7200089 1.9120058
139.965 -6.7200089 1.9120058
141.36501 -10.021049 3.0752475
140.66499 -10.138978 2.6607716
142.065 -6.904038 1.0717033
139.965 -6.904038 1.0717033
141.36501 -10.323007 1.8204689
140.66499 -10.389108 1.3946425
142.065 -6.9834094 0.21515484
139.965 -6.9834094 0.21515487
141.36501 -10.468478 0.5380941
140.66499 -10.48175 0.10737214
142.065 -6.9569192 -0.64465517
139.965 -6.9569192 -0.64465517
141.36501 -10.455258 -0.75243789
140.66499 -10.415498 -1.1815258
142.065 -6.8249688 -1.4946929
139.965 -6.8249688 -1.4946929
141.36501 -10.283547 -2.0315638
140.66499 -10.191359 -2.4525135
142.065 -6.5895591 -2.3220727
139.965 -6.5895591 -2.3220727
141.36501 -9.9559488 -3.2798932
140.66499 -9.8127279 -3.6863232
142.065 -6.2542586 -3.1142521
139.965 -6.2542586 -3.1142521
141.36501 -9.4774275 -4.4785028
140.66499 -9.285347 -4.8642521
142.065 -5.8241487 -3.8592227
139.965 -5.8241487 -3.8592227
141.36501 -8.855238 -5.6092224
140.66499 -8.6172094 -5.9684434
142.065 -5.3057518 -4.5456915
139.965 -5.3057518 -4.5456915
141.36501 -8.0988121 -6.6549125
140.66499 -7.8184433 -6.9821601
142.065 -4.7069249 -5.1632524
139.965 -4.7069249 -5.1632524
141.36501 -7.2196159 -7.5997214
140.66499 -6.9011579 -7.8900342
142.065 -4.0367455 -5.7025437
139.965 -4.0367455 -5.7025437
141.36501 -6.2309794 -8.4293251
140.66499 -5.8792586 -8.6783028
142.065 -3.3053739 -6.1553903
139.965 -3.3053739 -6.1553903
141.36501 -5.1478863 -9.1311502
140.66499 -4.7682347 -9.3350182
142.065 -2.5238955 -6.5149269
139.965 -2.5238955 -6.5149269
141.36501 -3.9867566 -9.6945562
140.66499 -3.5849297 -9.8502245
142.065 -1.7041577 -6.7757049
139.965 -1.7041577 -6.7757049
141.36501 -2.765192 -10.111001
140.66499 -2.347281 -10.21611
142.065 -0.85858649 -6.9337692
139.965 -0.85858649 -6.9337692
141.36501 -1.5017096 -10.374175
140.66499 -1.0740496 -10.427131
142.065 0 -6.9867249
139.965 0 -6.9867249
141.36501 -0.21546316 -10.480086
140.66499 0.21546316 -10.480086
142.065 0.85858649 -6.9337692
139.965 0.85858649 -6.9337692
141.36501 1.0740496 -10.427131
140.66499 1.5017098 -10.374175
142.065 1.7041577 -6.7757049
139.965 1.7041577 -6.7757049
141.36501 2.3472807 -10.21611
140.66499 2.765192 -10.111001
142.065 2.5238955 -6.5149269
139.965 2.5238955 -6.5149269
141.36501 3.5849297 -9.8502245
140.66499 3.9867566 -9.6945562
142.065 3.3053739 -6.1553903
139.965 3.3053739 -6.1553903
141.36501 4.7682347 -9.3350182
140.66499 5.1478863 -9.1311493
142.065 4.0367455 -5.7025437
139.965 4.0367455 -5.7025437
141.36501 5.8792586 -8.6783037
140.66499 6.2309785 -8.4293251
142.065 4.7069249 -5.1632524
139.965 4.7069249 -5.1632524
141.36501 6.9011579 -7.8900342
140.66499 7.2196159 -7.5997214
142.065 5.3057518 -4.5456915
139.965 5.3057518 -4.5456915
141.36501 7.8184433 -6.9821601
140.66499 8.0988121 -6.6549125
142.065 5.8241487 -3.8592227
139.965 5.8241487 -3.8592227
141.36501 8.6172094 -5.9684434
140.66499 8.855237 -5.6092224
142.065 6.2542586 -3.1142521
139.965 6.2542586 -3.1142521
141.36501 9.285347 -4.8642521
140.66499 9.4774275 -4.4785028
142.065 6.5895591 -2.3220727
139.965 6.5895591 -2.3220727
141.36501 9.8127279 -3.6863232
140.66499 9.9559488 -3.2798932
142.065 6.8249688 -1.4946929
139.965 6.8249688 -1.4946929
141.36501 10.191358 -2.4525135
140.66499 10.283547 -2.0315638
142.065 6.9569192 -0.64465517
139.965 6.9569192 -0.64465517
141.36501 10.415498 -1.1815259
140.66499 10.455259 -0.75243783
142.065 6.9834094 0.21515484
139.965 6.9834094 0.21515487
141.36501 10.48175 0.10737216
140.66499 10.468478 0.5380941
142.065 6.904038 1.0717033
139.965 6.904038 1.0717033
141.36501 10.389108 1.3946425
140.66499 10.323007 1.8204689
142.065 6.7200089 1.9120058
139.965 6.7200089 1.9120058
141.36501 10.138978 2.6607716
140.66499 10.021049 3.0752475
142.065 6.4341121 2.7233245
139.965 6.4341121 2.7233245
141.36501 9.7351522 3.8865662
140.66499 9.5671835 4.2834086
142.065 6.0506797 3.4933598
139.965 6.0506797 3.4933598
141.36501 9.1837511 5.0534444
140.66499 8.9682875 5.4266372
142.065 5.5755248 4.2104397
139.965 5.5755248 4.2104397
141.36501 8.4931326 6.1437173
140.66499 8.2334414 6.4876037
142.065 5.0158515 4.8636937
139.965 5.0158515 4.8636937
141.36501 7.6737685 7.1408577
140.66499 7.3737864 7.4502244
142.065 4.3801427 5.4432182
139.965 4.3801427 5.4432182
141.36501 6.7380776 8.0297499
140.66499 6.4023514 8.2999077
142.065 3.6780357 5.9402299
139.965 3.6780357 5.9402299
141.36501 5.7002444 8.7969189
140.66499 5.3338628 9.0237722
142.065 2.9201729 6.3471932
139.965 2.9201729 6.3471932
141.36501 4.5760007 9.4307356
140.66499 4.1845188 9.6108446
142.065 2.1180437 6.6579399
139.965 2.1180437 6.6579399
141.36501 3.3823893 9.9215918
140.66499 2.9717417 10.052228
142.065 1.2838069 6.8677583
139.965 1.2838069 6.8677583
141.36501 2.1375051 10.262048
140.66499 1.7139159 10.341231
141.36501 0.86021799 10.446941
142.065 -4.6629365e-16 5.2499976
139.965 4.6629365e-16 5.2499976
141.015 0 10.499997
142.065 8.1958543e-16 5.2499976
139.965 1.7521728e-15 5.2499976
141.015 2.571758e-15 10.499997
0 -156.66 226.69499
0 -157.70999 226.69499
0 -156.66 -226.69499
0 -157.70999 -226.69499
0 -155.61 0
0 -155.61 -226.69499
0 -157.70999 0
-139.965 -156.66 0
-139.965 -156.66 -226.69499
139.965 -156.66 0
139.965 -156.66 -226.69499
0 156.66 226.69499
0 155.61 226.69499
0 156.66 -226.69499
0 155.61 -226.69499
0 157.70999 0
0 157.70999 -226.69499
0 155.61 0
-139.965 156.66 0
-139.965 156.66 -226.69499
139.965 156.66 0
139.965 156.66 -226.69499
0 0 227.745
0 -156.66 227.745
0 0 225.645
0 -156.66 225.645
0 156.66 226.69501
0 156.66 225.645
0 -156.66 226.69501
-139.965 0 226.69501
-139.965 0 225.645
139.965 0 226.69501
139.965 0 225.645
139.965 0 226.69499
139.965 -156.66 226.69499
139.965 0 -226.69499
139.965 -156.66 -226.69499
139.965 156.66 0
139.965 156.66 -226.69499
139.965 -156.66 0
138.91499 0 0
138.91499 0 -226.69499
141.01498 0 0
141.01498 0 -226.69499
-139.965 0 226.69499
-139.965 -156.66 226.69499
-139.965 0 -226.69499
-139.965 -156.66 -226.69499
-139.965 156.66 0
-139.965 156.66 -226.69499
-139.965 -156.66 0
-141.01498 0 0
-141.01498 0 -226.69499
-138.91499 0 0
-138.91499 0 -226.69499
142.065 -4.6629365e-16 10.499997
139.965 4.6629365e-16 5.2499976
141.015 0 10.499997
139.965 4.6629365e-16 10.499997
142.065 -0.64516348 10.460205
139.965 -0.64516348 10.460205
141.015 -0.64516348 10.460205
142.065 -1.9257104 10.30164
139.965 -1.9257104 10.30164
141.015 -1.9257104 10.30164
142.065 -3.1770656 9.9869099
139.965 -3.1770656 9.9869099
141.015 -3.1770656 9.9869099
142.065 -4.3802595 9.5207901
139.965 -4.3802595 9.5207901
141.015 -4.3802595 9.5207901
142.065 -5.5170536 8.9103451
139.965 -5.5170536 8.9103451
141.015 -5.5170536 8.9103451
142.065 -6.5702143 8.1648293
139.965 -6.5702143 8.1648293
141.015 -6.5702143 8.1648293
142.065 -7.5237775 7.2955413
139.965 -7.5237775 7.2955413
141.015 -7.5237775 7.2955413
142.065 -8.363287 6.3156605
139.965 -8.363287 6.3156605
141.015 -8.363287 6.3156605
142.065 -9.0760193 5.2400408
139.965 -9.0760193 5.2400408
141.015 -9.0760193 5.2400408
142.065 -9.6511679 4.0849876
139.965 -9.6511679 4.0849876
141.015 -9.6511679 4.0849876
142.065 -10.080013 2.8680096
139.965 -10.080013 2.8680096
141.015 -10.080013 2.8680096
142.065 -10.356057 1.6075557
139.965 -10.356057 1.6075557
141.015 -10.356057 1.6075557
142.065 -10.475114 0.3227331
139.965 -10.475114 0.32273313
141.015 -10.475114 0.3227331
142.065 -10.435379 -0.96698195
139.965 -10.435379 -0.96698189
141.015 -10.435379 -0.96698189
142.065 -10.237453 -2.2420387
139.965 -10.237453 -2.2420385
141.015 -10.237453 -2.2420385
142.065 -9.8843384 -3.4831083
139.965 -9.8843384 -3.4831083
141.015 -9.8843384 -3.4831083
142.065 -9.3813877 -4.6713772
139.965 -9.3813877 -4.6713772
141.015 -9.3813877 -4.6713772
142.065 -8.7362232 -5.7888331
139.965 -8.7362232 -5.7888331
141.015 -8.7362232 -5.7888331
142.065 -7.9586277 -6.8185363
139.965 -7.9586277 -6.8185363
141.015 -7.9586277 -6.8185363
142.065 -7.0603871 -7.7448778
139.965 -7.0603871 -7.7448778
141.015 -7.0603871 -7.7448778
142.065 -6.0551186 -8.5538139
139.965 -6.0551186 -8.5538139
141.015 -6.0551186 -8.5538139
142.065 -4.9580607 -9.2330837
139.965 -4.9580607 -9.2330837
141.015 -4.9580607 -9.2330837
142.065 -3.7858434 -9.7723904
139.965 -3.7858434 -9.7723904
141.015 -3.7858434 -9.7723904
142.065 -2.5562365 -10.163556
139.965 -2.5562365 -10.163556
141.015 -2.5562365 -10.163556
142.065 -1.2878797 -10.400653
139.965 -1.2878797 -10.400653
141.015 -1.2878797 -10.400653
142.065 0 -10.480086
139.965 0 -10.480086
141.015 0 -10.480086
142.065 1.2878797 -10.400653
139.965 1.2878797 -10.400653
141.015 1.2878797 -10.400653
142.065 2.5562365 -10.163556
139.965 2.5562365 -10.163556
141.015 2.5562365 -10.163556
142.065 3.7858434 -9.7723904
139.965 3.7858434 -9.7723904
141.015 3.7858434 -9.7723904
142.065 4.9580607 -9.2330837
139.965 4.9580607 -9.2330837
141.015 4.9580607 -9.2330837
142.065 6.0551186 -8.5538139
139.965 6.0551186 -8.5538139
141.015 6.0551186 -8.5538139
142.065 7.0603871 -7.7448778
139.965 7.0603871 -7.7448778
141.015 7.0603871 -7.7448778
142.065 7.9586277 -6.8185363
139.965 7.9586277 -6.8185363
141.015 7.9586277 -6.8185363
142.065 8.7362232 -5.7888331
139.965 8.7362232 -5.7888331
141.015 8.7362232 -5.7888331
142.065 9.3813877 -4.6713772
139.965 9.3813877 -4.6713772
141.015 9.3813877 -4.6713772
142.065 9.8843384 -3.4831083
139.965 9.8843384 -3.4831083
141.015 9.8843384 -3.4831083
142.065 10.237453 -2.2420387
139.965 10.237453 -2.2420385
141.015 10.237453 -2.2420387
142.065 10.435379 -0.96698195
139.965 10.435379 -0.96698189
141.015 10.435379 -0.96698189
142.065 10.475114 0.3227331
139.965 10.475114 0.32273313
141.015 10.475114 0.32273313
142.065 10.356057 1.6075557
139.965 10.356057 1.6075557
141.015 10.356057 1.6075557
142.065 10.080013 2.8680096
139.965 10.080013 2.8680096
141.015 10.080013 2.8680096
142.065 9.6511679 4.0849876
139.965 9.6511679 4.0849876
141.015 9.6511679 4.0849876
142.065 9.0760193 5.2400408
139.965 9.0760193 5.2400408
141.015 9.0760193 5.2400408
142.065 8.363287 6.3156605
139.965 8.363287 6.3156605
141.015 8.363287 6.3156605
142.065 7.5237775 7.2955413
139.965 7.5237775 7.2955413
141.015 7.5237775 7.2955413
142.065 6.5702143 8.1648293
139.965 6.5702143 8.1648293
141.015 6.5702143 8.1648293
142.065 5.5170536 8.9103451
139.965 5.5170536 8.9103451
141.015 5.5170536 8.9103451
142.065 4.3802595 9.5207901
139.965 4.3802595 9.5207901
141.015 4.3802595 9.5207901
142.065 3.1770656 9.9869099
139.965 3.1770656 9.9869099
141.015 3.1770656 9.9869099
142.065 1.9257104 10.30164
139.965 1.9257104 10.30164
141.015 1.9257104 10.30164
142.065 0.64516348 5.2102056
139.965 0.64516348 10.460205
141.015 0.64516348 10.460205
0 -155.61 226.69499
-139.965 -156.66 226.69499
139.965 -156.66 226.69499
-139.965 -155.61 0
139.965 -155.61 0
-139.965 -157.70999 0
139.965 -157.70999 0
0 157.70999 226.69499
-139.965 156.66 226.69499
139.965 156.66 226.69499
-139.965 157.70999 0
139.965 157.70999 0
-139.965 155.61 0
139.965 155.61 0
0 156.66 227.745
-139.965 0 227.745
139.965 0 227.745
-139.965 156.66 226.69501
139.965 156.66 226.69501
-139.965 -156.66 226.69501
139.965 -156.66 226.69501
139.965 156.66 226.69499
138.91499 0 226.69499
141.01498 0 226.69499
138.91499 156.66 0
141.01498 156.66 0
138.91499 -156.66 0
141.01498 -156.66 0
-139.965 156.66 226.69499
-141.01498 0 226.69499
-138.91499 0 226.69499
-141.01498 156.66 0
-138.91499 156.66 0
-141.01498 -156.66 0
-138.91499 -156.66 0
141.015 0 10.499997
142.065 -0.64516348 5.2102056
142.065 -4.6629365e-16 5.2499976
139.965 -0.64516348 5.2102056
141.015 -1.290327 10.420413
142.065 -1.280547 5.0914316
139.965 -1.280547 5.0914316
141.015 -2.561094 10.182865
142.065 -1.8965186 4.8954768
139.965 -1.8965186 4.8954768
141.015 -3.7930372 9.7909555
142.065 -2.483741 4.6253119
139.965 -2.483741 4.6253119
141.015 -4.9674821 9.2506256
142.065 -3.0333126 4.2850318
139.965 -3.0333126 4.2850318
141.015 -6.0666251 8.5700655
142.065 -3.536902 3.8797951
139.965 -3.536902 3.8797951
141.015 -7.0738039 7.7595921
142.065 -3.9868755 3.4157443
139.965 -3.9868755 3.4157443
141.015 -7.9737511 6.8314905
142.065 -4.3764119 2.8999143
139.965 -4.3764119 2.8999143
141.015 -8.7528238 5.7998304
142.065 -4.6996074 2.3401246
139.965 -4.6996074 2.3401246
141.015 -9.3992147 4.6802511
142.065 -4.9515605 1.744861
139.965 -4.9515605 1.744861
141.015 -9.903121 3.4897237
142.065 -5.1284533 1.1231469
139.965 -5.1284533 1.1231469
141.015 -10.256907 2.2462955
142.065 -5.2276039 0.48440719
139.965 -5.2276039 0.48440719
141.015 -10.455208 0.96881604
142.065 -5.24751 -0.16167575
139.965 -5.24751 -0.16167572
141.015 -10.49502 -0.32334977
142.065 -5.1878686 -0.80530787
139.965 -5.1878686 -0.80530781
141.015 -10.375737 -1.6106141
142.065 -5.0495844 -1.4367324
139.965 -5.0495844 -1.4367324
141.015 -10.099169 -2.8734632
142.065 -4.834754 -2.0463777
139.965 -4.834754 -2.0463777
141.015 -9.669508 -4.0927534
142.065 -4.5466332 -2.6250017
139.965 -4.5466332 -2.6250017
141.015 -9.0932665 -5.2500014
142.065 -4.1895905 -3.1638334
139.965 -4.1895905 -3.1638334
141.015 -8.3791809 -6.3276649
142.065 -3.7690372 -3.6547048
139.965 -3.7690372 -3.6547048
141.015 -7.5380745 -7.3094077
142.065 -3.2913499 -4.0901747
139.965 -3.2913499 -4.0901747
141.015 -6.5826998 -8.1803474
142.065 -2.7637689 -4.4636416
139.965 -2.7637689 -4.4636416
141.015 -5.5275378 -8.9272814
142.065 -2.1942918 -4.7694445
139.965 -2.1942918 -4.7694445
141.015 -4.3885837 -9.538887
142.065 -1.5915515 -5.0029473
139.965 -1.5915515 -5.0029473
141.015 -3.1831031 -10.005893
142.065 -0.9646849 -5.1606107
139.965 -0.9646849 -5.1606107
141.015 -1.9293698 -10.321219
142.065 -0.32319474 -5.2400441
139.965 -0.32319474 -5.2400441
141.015 -0.64638948 -10.480086
142.065 0.32319474 -5.2400441
139.965 0.32319474 -5.2400441
141.015 0.64638948 -10.480086
142.065 0.9646849 -5.1606107
139.965 0.9646849 -5.1606107
141.015 1.9293698 -10.321219
142.065 1.5915515 -5.0029473
139.965 1.5915515 -5.0029473
141.015 3.1831031 -10.005893
142.065 2.1942918 -4.7694445
139.965 2.1942918 -4.7694445
141.015 4.3885837 -9.538887
142.065 2.7637689 -4.4636416
139.965 2.7637689 -4.4636416
141.015 5.5275378 -8.9272814
142.065 3.2913499 -4.0901747
139.965 3.2913499 -4.0901747
141.015 6.5826998 -8.1803474
142.065 3.7690372 -3.6547048
139.965 3.7690372 -3.6547048
141.015 7.5380745 -7.3094077
142.065 4.1895905 -3.1638334
139.965 4.1895905 -3.1638334
141.015 8.3791809 -6.3276649
142.065 4.5466332 -2.6250017
139.965 4.5466332 -2.6250017
141.015 9.0932665 -5.2500014
142.065 4.834754 -2.0463777
139.965 4.834754 -2.0463777
141.015 9.669508 -4.0927534
142.065 5.0495844 -1.4367324
139.965 5.0495844 -1.4367324
141.015 10.099169 -2.8734632
142.065 5.1878686 -0.80530787
139.965 5.1878686 -0.80530781
141.015 10.375737 -1.6106141
142.065 5.24751 -0.16167575
139.965 5.24751 -0.16167572
141.015 10.49502 -0.32334977
142.065 5.2276039 0.48440719
139.965 5.2276039 0.48440719
141.015 10.455208 0.96881604
142.065 5.1284533 1.1231469
139.965 5.1284533 1.1231469
141.015 10.256907 2.2462955
142.065 4.9515605 1.744861
139.965 4.9515605 1.744861
141.015 9.903121 3.4897237
142.065 4.6996074 2.3401246
139.965 4.6996074 2.3401246
141.015 9.3992147 4.6802511
142.065 4.3764119 2.8999143
139.965 4.3764119 2.8999143
141.015 8.7528238 5.7998304
142.065 3.9868755 3.4157443
139.965 3.9868755 3.4157443
141.015 7.9737511 6.8314905
142.065 3.536902 3.8797951
139.965 3.536902 3.8797951
141.015 7.0738039 7.7595921
142.065 3.0333126 4.2850318
139.965 3.0333126 4.2850318
141.015 6.0666251 8.5700655
142.065 2.483741 4.6253119
139.965 2.483741 4.6253119
141.015 4.9674821 9.2506256
142.065 1.8965186 4.8954768
139.965 1.8965186 4.8954768
141.015 3.7930372 9.7909555
142.065 1.280547 5.0914316
139.965 1.280547 5.0914316
141.015 2.561094 10.182865
139.965 0.64516348 5.2102056
141.015 1.290327 10.420413
142.065 0.64516348 10.460205
142.065 -4.6629365e-16 2.6249979
139.965 4.6629365e-16 7.8749971
142.065 1.462525e-15 7.8749971
139.965 1.1092333e-15 2.6249979
139.965 4.6629365e-16 2.6249979
140.48999 2.3314682e-16 10.499997
142.065 1.7664589e-16 2.6249979
141.54001 2.3386114e-15 10.499997
