# .PCD v0.7 - Point Cloud Data file format
VERSION 0.7
FIELDS x y z
SIZE 4 4 4
TYPE F F F
COUNT 1 1 1
WIDTH 2151
HEIGHT 1
VIEWPOINT 0 0 0 1 0 0 0
POINTS 2151
DATA ascii
-298.57166 38.608398 734
-295.99774 38.608398 734
-293.42383 38.608398 734
-290.84998 38.608398 734
-288.27606 38.608398 734
-286.48065 38.7136 736
-283.89975 38.7136 736
-282.08328 38.818802 738
-279.87408 38.871399 739
-278.03308 38.976601 741
-275.43466 38.976601 741
-273.20441 39.029202 742
-270.60245 39.029202 742
-268.00052 39.029202 742
-266.11392 39.134399 744
-265.27585 39.3974 749
-0 0 0
-0 0 0
-0 0 0
-0 0 0
-0 0 0
-0 0 0
-0 0 0
-0 0 0
-0 0 0
-0 0 0
-0 0 0
-0 0 0
-0 0 0
-0 0 0
-0 0 0
-0 0 0
-352.58832 62.9622 1197
-352.17456 63.646 1210
-347.93149 63.646 1210
-343.68842 63.646 1210
-340.56747 63.8564 1214
-336.31036 63.8564 1214
-332.05328 63.8564 1214
-327.7962 63.8564 1214
-323.53912 63.8564 1214
-319.28201 63.8564 1214
-315.0249 63.8564 1214
-312.04776 64.1194 1219
-0 0 0
-303.4985 64.1194 1219
-299.22388 64.1194 1219
-294.94925 64.1194 1219
-292.58228 64.540199 1227
-288.27954 64.540199 1227
-285.13412 64.8032 1232
-280.81387 64.8032 1232
-277.39136 65.013603 1236
-273.05713 65.013603 1236
-268.72287 65.013603 1236
-264.38867 65.013603 1236
-260.05441 65.013603 1236
-255.72015 65.013603 1236
-252.40288 65.276604 1241
-248.85062 65.487 1245
-245.46669 65.75 1250
-241.08334 65.75 1250
-236.7 65.75 1250
-233.24594 66.013 1255
-228.84508 66.013 1255
-224.44423 66.013 1255
-220.04333 66.013 1255
-216.32977 66.223396 1259
-211.9149 66.223396 1259
-206.84074 66.013 1255
-194.53587 63.4356 1206
-189.67561 63.225201 1202
-184.6891 62.9622 1197
-178.07907 62.120602 1181
-171.58121 61.278999 1165
-165.77068 60.6478 1153
-156.9584 58.859402 1119
-152.48738 58.648998 1115
-146.71193 57.912601 1101
-141.94286 57.544399 1094
-135.96049 56.6502 1077
-130.09734 55.756001 1060
-125.66489 55.440399 1054
-120.11737 54.598801 1038
-115.01866 53.915001 1025
-111.09824 53.757198 1022
-106.5676 53.283798 1013
-103.01534 53.283798 1013
-95.73201 51.285 975
-91.271515 50.706402 964
-87.435242 50.443401 959
-83.371002 50.022598 951
-79.110397 49.444 940
-75.249565 49.075802 933
-71.206367 48.549801 923
-67.012413 47.866001 910
-63.330402 47.497799 903
-59.364349 46.8666 891
-55.861206 46.550999 885
-52.340504 46.1828 878
-48.981133 45.9198 873
-45.341202 45.341202 862
-42.318443 45.341202 862
-39.20454 45.236 860
-36.188797 45.236 860
-0 0 0
-0 0 0
-0 0 0
-0 0 0
-0 0 0
-0 0 0
-23.547268 70.6418 1343
-18.837795 70.6418 1343
-14.12837 70.6418 1343
-9.4609776 70.957397 1349
-4.748045 71.220398 1354
0 71.220398 1354
4.7655783 71.483398 1359
9.5311565 71.483398 1359
14.296644 71.483398 1359
19.146381 71.799004 1365
23.933001 71.799004 1365
28.71962 71.799004 1365
33.628971 72.061996 1370
38.433029 72.061996 1370
43.42654 72.377602 1376
48.251736 72.377602 1376
53.076931 72.377602 1376
57.902119 72.377602 1376
62.955151 72.640602 1381
67.552406 72.377602 1376
72.377602 72.377602 1376
76.248985 71.483398 1359
80.716492 71.220398 1354
85.148849 70.957397 1349
89.479599 70.6418 1343
93.48774 70.115799 1333
97.793945 69.852798 1328
101.21646 69.0112 1312
105.01061 68.485199 1302
108.73471 67.959198 1292
112.47633 67.485802 1283
116.06367 66.959801 1273
119.67556 66.486397 1264
123.22424 66.013 1255
127.11665 65.75 1250
130.55321 65.276604 1241
133.92664 64.8032 1232
137.23694 64.329803 1223
140.48405 63.8564 1214
144.26425 63.646 1210
146.9118 62.9622 1197
150.09938 62.541401 1189
153.74985 62.331001 1185
156.83914 61.910198 1177
159.87244 61.489399 1169
162.84961 61.0686 1161
165.77068 60.6478 1153
168.63564 60.227001 1145
171.5952 59.858799 1138
174.96863 59.648399 1134
177.6828 59.2276 1126
180.50218 58.859402 1119
183.27246 58.491199 1112
186.49854 58.2808 1108
189.18115 57.912601 1101
191.81467 57.544399 1094
193.86258 57.018398 1084
196.38741 56.6502 1077
198.86304 56.282001 1070
202.04712 56.124199 1067
204.43867 55.756001 1060
206.19203 55.23 1050
209.2744 55.072201 1047
211.72551 54.756599 1041
213.9277 54.388401 1034
215.66 53.915001 1025
217.97092 53.5994 1019
220.89198 53.441601 1016
223.12918 53.125999 1010
225.32437 52.810402 1004
228.16127 52.652599 1001
230.28282 52.337002 995
232.36229 52.0214 989
235.35342 51.916199 987
238.08864 51.7584 984
240.80281 51.600601 981
244.24287 51.600601 981
247.68291 51.600601 981
252.65881 51.916199 987
0 0 0
0 0 0
0 0 0
0 0 0
371.71365 71.483398 1359
375.09412 71.220398 1354
378.43948 70.957397 1349
381.46576 70.6418 1343
383.29974 70.115799 1333
386.51883 69.852798 1328
389.40833 69.537201 1322
391.06348 69.0112 1312
394.15637 68.748199 1307
395.68881 68.222198 1297
397.45963 67.748802 1288
401.9762 67.748802 1288
404.91483 67.485802 1283
407.81836 67.222801 1278
410.6868 66.959801 1273
412.21567 66.486397 1264
414.99997 66.223396 1259
416.41669 65.75 1250
417.77026 65.276604 1241
420.42133 65.013603 1236
423.38086 64.8032 1232
427.70114 64.8032 1232
428.86536 64.329803 1223
431.73734 64.1194 1219
432.79285 63.646 1210
435.59109 63.4356 1206
438.36139 63.225201 1202
440.73541 62.9622 1197
441.95926 62.541401 1189
444.62784 62.331001 1185
447.26828 62.120602 1181
449.8808 61.910198 1177
450.92227 61.489399 1169
453.46463 61.278999 1165
457.54993 61.278999 1165
458.46509 60.8582 1157
459.32425 60.437401 1149
461.74036 60.227001 1145
464.12842 60.016602 1141
466.89868 59.858799 1138
467.57892 59.438 1130
469.87228 59.2276 1126
472.55841 59.069801 1123
474.79919 58.859402 1119
475.72845 58.491199 1112
477.90256 58.2808 1108
481.78793 58.2808 1108
482.60501 57.912601 1101
481.60562 57.334 1090
479.6384 56.6502 1077
483.41504 56.6502 1077
487.19174 56.6502 1077
492.33603 56.807999 1080
496.12323 56.807999 1080
499.91046 56.807999 1080
505.56314 57.018398 1084
0 0 0
0 0 0
0 0 0
0 0 0
0 0 0
0 0 0
0 0 0
0 0 0
0 0 0
0 0 0
1283.1034 133.6566 2541
1292.0138 133.6566 2541
1300.9243 133.6566 2541
1319.6289 134.65601 2560
1338.4667 135.6554 2579
1347.5103 135.6554 2579
1388.114 138.8114 2639
1365.5978 135.6554 2579
1354.3871 133.6566 2541
1363.2972 133.6566 2541
1372.2078 133.6566 2541
1391.4454 134.65601 2560
1400.4225 134.65601 2560
0 0 0
0 0 0
0 0 0
-0 0 0
-0 0 0
-0 0 0
-1172.1139 119.45108 2129
-1164.6483 119.45108 2129
-1157.1825 119.45108 2129
-1157.2772 120.23657 2143
-1156.7372 120.96597 2156
-826.17072 86.965332 1550
-820.73535 86.965332 1550
-815.30005 86.965332 1550
-813.52209 87.358078 1557
-811.69519 87.750824 1564
-810.33459 88.199677 1572
-808.40594 88.592422 1579
-1110.4912 122.53695 2184
-1102.8326 122.53695 2184
-1095.1742 122.53695 2184
-786.25775 88.592422 1579
-777.25977 88.199677 1572
-771.74725 88.199677 1572
-766.23468 88.199677 1572
-764.10974 88.592422 1579
-761.93555 88.985168 1586
-760.18927 89.434021 1594
-754.59961 89.434021 1594
-752.29919 89.826767 1601
-746.68512 89.826767 1601
-1094.7112 132.69226 2365
-1086.418 132.69226 2365
-1078.1248 132.69226 2365
-1062.5936 131.79456 2349
-1054.3566 131.79456 2349
-1046.1193 131.79456 2349
-0 0 0
-0 0 0
-0 0 0
-0 0 0
-0 0 0
-0 0 0
-0 0 0
-0 0 0
-0 0 0
-0 0 0
-298.57166 41.182289 734
-295.99774 41.182289 734
-293.42383 41.182289 734
-290.84998 41.182289 734
-289.06155 41.294506 736
-286.48065 41.294506 736
-284.6712 41.406719 738
-282.08328 41.406719 738
-279.87408 41.462822 739
-278.03308 41.575039 741
-275.80637 41.631145 742
-273.20441 41.631145 742
-271.33185 41.743359 744
-268.7229 41.743359 744
-266.82928 41.855572 746
-264.5675 41.911674 747
-0 0 0
-0 0 0
-0 0 0
-0 0 0
-0 0 0
-0 0 0
-0 0 0
-0 0 0
-0 0 0
-0 0 0
-0 0 0
-0 0 0
-0 0 0
-0 0 0
-0 0 0
-0 0 0
-352.58832 67.159676 1197
-348.39087 67.159676 1197
-344.19336 67.159676 1197
-343.68842 67.889061 1210
-340.56747 68.113487 1214
-336.31036 68.113487 1214
-332.05328 68.113487 1214
-327.7962 68.113487 1214
-323.53912 68.113487 1214
-319.28201 68.113487 1214
-315.0249 68.113487 1214
-310.76782 68.113487 1214
-309.79294 68.842873 1227
-304.49442 68.618446 1223
-300.20575 68.618446 1223
-295.91705 68.618446 1223
-292.58228 68.842873 1227
-288.27954 68.842873 1227
-285.13412 69.123413 1232
-281.72562 69.347832 1236
-277.39136 69.347832 1236
-273.05713 69.347832 1236
-268.72287 69.347832 1236
-264.38867 69.347832 1236
-260.05441 69.347832 1236
-256.75461 69.628372 1241
-252.40288 69.628372 1241
-248.85062 69.852791 1245
-245.46669 70.133331 1250
-241.08334 70.133331 1250
-236.7 70.133331 1250
-233.24594 70.413864 1255
-228.84508 70.413864 1255
-224.44423 70.413864 1255
-220.74467 70.63829 1259
-216.32977 70.63829 1259
-211.9149 70.63829 1259
-206.84074 70.413864 1255
-193.89064 67.440208 1202
-189.67561 67.440208 1202
-184.6891 67.159676 1197
-179.28535 66.710823 1189
-171.58121 65.364265 1165
-166.34578 64.915413 1157
-156.9584 62.78336 1119
-152.48738 62.558929 1115
-146.71193 61.773434 1101
-141.94286 61.380688 1094
-136.33922 60.595192 1080
-129.72914 59.304741 1057
-125.66489 59.136425 1054
-121.15885 58.743675 1047
-115.01866 57.509331 1025
-111.09824 57.341011 1022
-106.5676 56.836052 1013
-100.87978 55.65781 992
-95.73201 54.703995 975
-91.555557 54.255142 967
-87.435242 53.80629 959
-83.371002 53.357437 951
-79.110397 52.740265 940
-75.410881 52.459728 935
-71.360664 51.898666 925
-67.012413 51.057064 910
-63.540802 50.832638 906
-59.564228 50.159355 894
-55.861206 49.654396 885
-52.340504 49.26165 878
-48.981133 48.981117 873
-45.604202 48.644478 867
-42.416626 48.476158 864
-39.295715 48.363945 862
-36.272953 48.363945 862
-0 0 0
-0 0 0
-0 0 0
-0 0 0
-0 0 0
-0 0 0
-23.547268 75.35125 1343
-18.837795 75.35125 1343
-14.12837 75.35125 1343
-9.4609776 75.687889 1349
-4.748045 75.968422 1354
0 75.968422 1354
4.7655783 76.248955 1359
9.5311565 76.248955 1359
14.296644 76.248955 1359
19.146381 76.585594 1365
23.933001 76.585594 1365
28.82482 76.866127 1370
33.628971 76.866127 1370
38.433029 76.866127 1370
43.42654 77.202774 1376
48.251736 77.202774 1376
53.269794 77.483299 1381
58.112518 77.483299 1381
62.955151 77.483299 1381
67.552406 77.202774 1376
72.377602 77.202774 1376
76.585617 76.585594 1365
80.716492 75.968422 1354
85.148849 75.687889 1349
89.479599 75.35125 1343
93.48774 74.790184 1333
97.793945 74.509644 1328
101.21646 73.611938 1312
105.01061 73.050873 1302
108.73471 72.489815 1292
112.91467 72.265381 1288
116.06367 71.423782 1273
119.67556 70.918823 1264
123.22424 70.413864 1255
127.11665 70.133331 1250
130.55321 69.628372 1241
133.3831 68.842873 1227
136.7881 68.39402 1219
140.48405 68.113487 1214
143.78734 67.664635 1206
147.52547 67.440208 1202
150.09938 66.710823 1189
153.74985 66.486397 1185
156.83914 66.037544 1177
159.87244 65.588684 1169
162.84961 65.139832 1161
165.77068 64.690979 1153
168.63564 64.242126 1145
171.5952 63.84938 1138
174.96863 63.624958 1134
177.20941 63.007782 1123
180.50218 62.78336 1119
183.27246 62.390614 1112
186.49854 62.166183 1108
189.18115 61.773434 1101
191.81467 61.380688 1094
194.39909 60.987942 1087
196.38741 60.426876 1077
198.86304 60.03413 1070
202.04712 59.86581 1067
204.43867 59.473064 1060
206.97751 59.136425 1054
209.2744 58.743675 1047
211.72551 58.407036 1041
213.9277 58.014286 1034
214.39761 57.172688 1019
217.32921 57.004372 1016
220.89198 57.004372 1016
223.79195 56.836052 1013
225.32437 56.331089 1004
228.16127 56.162769 1001
230.28282 55.82613 995
232.36229 55.489487 989
235.35342 55.377277 987
237.36275 55.040634 981
240.80281 55.040634 981
244.24287 55.040634 981
247.68291 55.040634 981
0 0 0
0 0 0
0 0 0
0 0 0
368.56824 76.585594 1365
371.71365 76.248955 1359
376.47925 76.248955 1359
378.43948 75.687889 1349
381.46576 75.35125 1343
384.73749 75.070717 1338
386.51883 74.509644 1328
391.17566 74.509644 1328
392.5538 73.892479 1317
395.66425 73.611938 1312
395.68881 72.77034 1297
397.45963 72.265381 1288
401.9762 72.265381 1288
404.91483 71.984848 1283
407.81836 71.704315 1278
410.6868 71.423782 1273
412.21567 70.918823 1264
414.99997 70.63829 1259
416.41669 70.133331 1250
417.77026 69.628372 1241
420.42133 69.347832 1236
424.75549 69.347832 1236
427.70114 69.123413 1232
430.26801 68.842873 1227
431.73734 68.39402 1219
432.79285 67.889061 1210
435.59109 67.664635 1206
438.36139 67.440208 1202
439.2626 66.935249 1193
441.95926 66.710823 1189
444.62784 66.486397 1185
447.26828 66.261971 1181
449.8808 66.037544 1177
452.46521 65.813118 1173
455.02158 65.588684 1169
455.97894 65.139832 1161
456.8801 64.690979 1153
459.32425 64.46656 1149
461.74036 64.242126 1145
464.12842 64.017708 1141
466.89868 63.84938 1138
469.23407 63.624958 1134
469.87228 63.176105 1126
472.55841 63.007782 1123
474.79919 62.78336 1119
475.72845 62.390614 1112
477.90256 62.166183 1108
481.78793 62.166183 1108
482.60501 61.773434 1101
481.60562 61.156265 1090
477.85703 60.202454 1073
481.61963 60.202454 1073
487.19174 60.426876 1077
492.33603 60.595192 1080
496.12323 60.595192 1080
499.91046 60.595192 1080
505.56314 60.819622 1084
0 0 0
0 0 0
0 0 0
0 0 0
0 0 0
0 0 0
0 0 0
0 0 0
0 0 0
1274.1929 142.56703 2541
1283.1034 142.56703 2541
1292.0138 142.56703 2541
1300.9243 142.56703 2541
1309.8348 142.56703 2541
1348.3274 145.76512 2598
1357.4377 145.76512 2598
1356.5541 144.69908 2579
1365.5978 144.69908 2579
1364.5142 143.63306 2560
1373.4912 143.63306 2560
1382.4683 143.63306 2560
1391.4454 143.63306 2560
1400.4225 143.63306 2560
1463.9037 149.18762 2659
1496.498 151.5441 2701
1518.236 152.77844 2723
-0 0 0
-0 0 0
-0 0 0
-1172.1139 126.91678 2129
-1164.6483 126.91678 2129
-1157.1825 126.91678 2129
-1179.4182 130.19551 2184
-820.33917 91.148773 1529
-814.97736 91.148773 1529
-813.32233 91.566071 1536
-811.61804 91.98336 1543
-806.20721 91.98336 1543
-804.42938 92.400658 1550
-802.60242 92.817955 1557
-808.40594 94.12944 1579
-757.10687 88.764244 1489
-751.88544 88.764244 1489
-746.66406 88.764244 1489
-775.30298 92.817955 1557
-769.84314 92.817955 1557
-764.38324 92.817955 1557
-766.23468 93.712151 1572
-760.72223 93.712151 1572
-758.57263 94.12944 1579
-753.03564 94.12944 1579
-747.49866 94.12944 1579
-745.25079 94.546738 1586
-743.42041 95.023643 1594
-737.83069 95.023643 1594
-1093.7679 141.93933 2381
-709.78442 92.817955 1557
-694.82495 91.566071 1536
-689.43878 91.566071 1536
-1046.1193 140.03171 2349
-0 0 0
-0 0 0
-0 0 0
-0 0 0
-0 0 0
-0 0 0
-0 0 0
-0 0 0
-0 0 0
-0 0 0
-298.57166 43.756184 734
-295.99774 43.756184 734
-293.42383 43.756184 734
-290.84998 43.756184 734
-289.06155 43.875408 736
-286.48065 43.875408 736
-284.6712 43.994637 738
-282.46552 44.054249 739
-279.87408 44.054249 739
-278.03308 44.173477 741
-275.80637 44.233089 742
-273.20441 44.233089 742
-271.33185 44.352314 744
-268.7229 44.352314 744
-266.82928 44.471542 746
-264.5675 44.531155 747
-0 0 0
-0 0 0
-0 0 0
-0 0 0
-0 0 0
-0 0 0
-0 0 0
-0 0 0
-0 0 0
-0 0 0
-0 0 0
-0 0 0
-0 0 0
-0 0 0
-0 0 0
-0 0 0
-0 0 0
-348.39087 71.357155 1197
-344.19336 71.357155 1197
-343.68842 72.132126 1210
-341.97015 72.668648 1219
-337.6955 72.668648 1219
-333.4209 72.668648 1219
-329.14627 72.668648 1219
-324.87164 72.668648 1219
-320.59702 72.668648 1219
-316.32236 72.668648 1219
-312.04776 72.668648 1219
-309.79294 73.145554 1227
-305.4903 73.145554 1227
-300.20575 72.907097 1223
-295.91705 72.907097 1223
-292.58228 73.145554 1227
-288.27954 73.145554 1227
-285.13412 73.443619 1232
-281.72562 73.682068 1236
-277.39136 73.682068 1236
-273.05713 73.682068 1236
-268.72287 73.682068 1236
-265.45819 73.980141 1241
-261.10641 73.980141 1241
-256.75461 73.980141 1241
-252.40288 73.980141 1241
-248.85062 74.218597 1245
-245.46669 74.516655 1250
-241.08334 74.516655 1250
-237.64679 74.81472 1255
-233.24594 74.81472 1255
-228.84508 74.81472 1255
-224.44423 74.81472 1255
-220.74467 75.053177 1259
-217.1889 75.35125 1264
-212.7565 75.35125 1264
-207.49998 75.053177 1259
-193.89064 71.65522 1202
-189.67561 71.65522 1202
-184.6891 71.357155 1197
-179.88852 71.118698 1193
-170.99208 69.211067 1161
-165.77068 68.734161 1153
-157.51947 66.945763 1123
-152.48738 66.468857 1115
-147.24493 65.872726 1105
-142.33209 65.395821 1097
-136.33922 64.382393 1080
-129.72914 63.011288 1057
-125.66489 62.832447 1054
-121.15885 62.415154 1047
-115.35531 61.282501 1028
-111.42435 61.103657 1025
-106.5676 60.388298 1013
-100.87978 59.136425 992
-96.615692 58.659512 984
-91.839592 57.824928 970
-87.708763 57.348022 962
-83.809334 56.990341 956
-79.110397 56.03653 940
-75.249565 55.619236 933
-70.820641 54.725037 918
-67.012413 54.248131 910
-63.540802 54.009678 906
-59.697483 53.41354 896
-55.861206 52.757793 885
-52.340504 52.3405 878
-48.981133 52.042435 873
-45.604202 51.684757 867
-42.416626 51.505913 864
-39.295715 51.386688 862
-36.272953 51.386688 862
-0 0 0
-0 0 0
-0 0 0
-0 0 0
-0 0 0
-0 0 0
-0 0 0
-18.837795 80.060699 1343
-14.12837 80.060699 1343
-9.4609776 80.418373 1349
-4.748045 80.716446 1354
0 81.014511 1359
4.7655783 81.014511 1359
9.5732365 81.372192 1365
14.359764 81.372192 1365
19.146381 81.372192 1365
24.020668 81.670258 1370
28.82482 81.670258 1370
33.628971 81.670258 1370
38.601353 82.027939 1376
43.42654 82.027939 1376
48.427067 82.326004 1381
53.269794 82.326004 1381
58.112518 82.326004 1381
63.228672 82.683678 1387
67.797874 82.326004 1381
72.377602 82.027939 1376
76.86615 81.670258 1370
81.014557 81.014511 1359
85.148849 80.418373 1349
89.479599 80.060699 1343
93.48774 79.464561 1333
97.793945 79.166496 1328
101.21646 78.212685 1312
104.60735 77.318489 1297
108.73471 77.020416 1292
112.91467 76.781967 1288
116.51955 76.185829 1278
119.67556 75.35125 1264
123.22424 74.81472 1255
127.11665 74.516655 1250
130.55321 73.980141 1241
132.94827 72.907097 1223
136.7881 72.668648 1219
140.48405 72.370575 1214
143.78734 71.893669 1206
147.52547 71.65522 1202
150.60434 71.118698 1193
153.74985 70.641792 1185
156.83914 70.164886 1177
159.87244 69.687981 1169
162.84961 69.211067 1161
165.77068 68.734161 1153
169.22475 68.495712 1149
171.5952 67.839966 1138
174.96863 67.601509 1134
177.20941 66.945763 1123
180.50218 66.707314 1119
183.27246 66.290016 1112
186.49854 66.051567 1108
189.86845 65.872726 1105
191.81467 65.21698 1094
193.86258 64.62085 1084
196.38741 64.203552 1077
198.86304 63.786259 1070
201.28967 63.368965 1063
204.43867 63.190128 1060
206.97751 62.832447 1054
209.2744 62.415154 1047
211.72551 62.057476 1041
213.9277 61.640182 1034
214.39761 60.745983 1019
217.32921 60.567142 1016
220.89198 60.567142 1016
223.79195 60.388298 1013
225.99765 60.030617 1007
228.16127 59.672939 1001
230.28282 59.315258 995
232.36229 58.957581 989
234.63806 58.659512 984
237.36275 58.480675 981
240.80281 58.480675 981
244.98978 58.659512 984
0 0 0
0 0 0
0 0 0
0 0 0
0 0 0
368.56824 81.372192 1365
373.35477 81.372192 1365
376.47925 81.014511 1359
378.43948 80.418373 1349
381.46576 80.060699 1343
384.73749 79.762627 1338
386.51883 79.166496 1328
391.17566 79.166496 1328
392.5538 78.51075 1317
395.66425 78.212685 1312
395.68881 77.318489 1297
398.69394 77.020416 1292
401.9762 76.781967 1288
404.91483 76.483902 1283
407.81836 76.185829 1278
410.6868 75.887764 1273
412.21567 75.35125 1264
414.99997 75.053177 1259
418.08234 74.81472 1255
419.11682 74.218597 1245
420.42133 73.682068 1236
424.75549 73.682068 1236
427.70114 73.443619 1232
430.26801 73.145554 1227
431.73734 72.668648 1219
432.79285 72.132126 1210
435.59109 71.893669 1206
438.36139 71.65522 1202
439.2626 71.118698 1193
441.95926 70.880249 1189
444.62784 70.641792 1185
447.26828 70.403343 1181
451.4097 70.403343 1181
452.46521 69.926437 1173
455.02158 69.687981 1169
455.97894 69.211067 1161
456.8801 68.734161 1153
459.32425 68.495712 1149
461.74036 68.257256 1145
462.90811 67.839966 1138
466.89868 67.839966 1138
469.23407 67.601509 1134
469.87228 67.124603 1126
472.55841 66.945763 1123
474.79919 66.707314 1119
475.72845 66.290016 1112
477.90256 66.051567 1108
481.78793 66.051567 1108
485.67334 66.051567 1108
489.55878 66.051567 1108
477.85703 63.965099 1073
481.61963 63.965099 1073
487.19174 64.203552 1077
492.33603 64.382393 1080
496.12323 64.382393 1080
499.91046 64.382393 1080
0 0 0
0 0 0
0 0 0
0 0 0
0 0 0
0 0 0
0 0 0
0 0 0
0 0 0
1265.2826 151.47746 2541
1274.1929 151.47746 2541
1283.1034 151.47746 2541
1301.6747 152.61012 2560
1300.9243 151.47746 2541
1309.8348 151.47746 2541
1318.7451 151.47746 2541
1337.583 152.61012 2560
1346.5601 152.61012 2560
1355.5371 152.61012 2560
1354.3871 151.47746 2541
1363.2972 151.47746 2541
1372.2078 151.47746 2541
1391.4454 152.61012 2560
1410.8163 153.74278 2579
1463.9037 158.51184 2659
1496.498 161.01559 2701
1518.236 162.32709 2723
-0 0 0
-0 0 0
-0 0 0
-845.63971 96.952301 1536
-836.42419 96.51046 1529
-820.19183 95.248062 1509
-811.6601 94.869347 1503
-806.38959 94.869347 1503
-808.04822 95.689903 1516
-802.73212 95.689903 1516
-801.09802 96.131744 1523
-798.89233 96.51046 1529
-793.5307 96.51046 1529
-788.16888 96.51046 1529
-769.49597 94.869347 1503
-757.10687 93.985664 1489
-751.88544 93.985664 1489
-746.66406 93.985664 1489
-771.81738 97.835991 1550
-766.38202 97.835991 1550
-760.94672 97.835991 1550
-758.92328 98.277824 1557
-750.07605 97.835991 1550
-744.64069 97.835991 1550
-739.20538 97.835991 1550
-737.0838 98.277824 1557
-731.6239 98.277824 1557
-733.15985 99.224625 1572
-723.94427 98.719666 1564
-718.45996 98.719666 1564
-703.40228 97.39415 1543
-691.65845 96.51046 1529
-686.29681 96.51046 1529
-0 0 0
-0 0 0
-0 0 0
-0 0 0
-0 0 0
-0 0 0
-0 0 0
-0 0 0
-0 0 0
-0 0 0
-0 0 0
-298.57166 46.330074 734
-295.99774 46.330074 734
-294.22336 46.45631 736
-291.64246 46.45631 736
-289.84705 46.582554 738
-287.25916 46.582554 738
-284.6712 46.582554 738
-282.46552 46.645672 739
-279.87408 46.645672 739
-278.03308 46.771912 741
-276.54977 46.961273 744
-273.9408 46.961273 744
-271.33185 46.961273 744
-269.44528 47.087509 746
-266.82928 47.087509 746
-264.5675 47.150631 747
-0 0 0
-0 0 0
-0 0 0
-0 0 0
-0 0 0
-0 0 0
-0 0 0
-0 0 0
-0 0 0
-0 0 0
-0 0 0
-0 0 0
-0 0 0
-0 0 0
-0 0 0
-360.66068 76.375191 1210
-355.23935 76.122711 1206
-351.01031 76.122711 1206
-346.78131 76.122711 1206
-344.82458 76.62767 1214
-341.97015 76.943268 1219
-337.6955 76.943268 1219
-333.4209 76.943268 1219
-329.14627 76.943268 1219
-325.93768 77.195747 1223
-322.70102 77.448227 1227
-318.39832 77.448227 1227
-314.09567 77.448227 1227
-309.79294 77.448227 1227
-305.4903 77.448227 1227
-301.18762 77.448227 1227
-298.09473 77.763832 1232
-293.77454 77.763832 1232
-289.45428 77.763832 1232
-286.05988 78.016304 1236
-281.72562 78.016304 1236
-277.39136 78.016304 1236
-273.05713 78.016304 1236
-268.72287 78.016304 1236
-265.45819 78.331902 1241
-261.10641 78.331902 1241
-256.75461 78.331902 1241
-253.21642 78.584389 1245
-249.85001 78.899986 1250
-245.46669 78.899986 1250
-242.04767 79.215584 1255
-237.64679 79.215584 1255
-233.24594 79.215584 1255
-228.84508 79.215584 1255
-225.15958 79.468071 1259
-220.74467 79.468071 1259
-217.1889 79.783669 1264
-211.9149 79.468071 1259
-206.84074 79.215584 1255
-195.82631 76.62767 1214
-190.30681 76.122711 1206
-184.6891 75.554626 1197
-179.88852 75.302147 1193
-170.99208 73.28231 1161
-165.19559 72.524872 1149
-157.51947 70.883743 1123
-152.48738 70.378784 1115
-148.17772 70.18943 1112
-142.85107 69.49511 1101
-135.96049 67.980232 1077
-130.09734 66.907188 1060
-125.66489 66.528473 1054
-121.15885 66.086632 1047
-115.01866 64.69799 1025
-111.09824 64.508629 1022
-105.9364 63.561829 1007
-100.87978 62.615028 992
-96.910248 62.299427 987
-92.123642 61.415752 973
-87.16172 60.342712 956
-83.634003 60.216469 954
-79.110397 59.332794 940
-75.249565 58.890953 933
-70.820641 57.944153 918
-67.012413 57.439194 910
-63.540802 57.18671 906
-59.830738 56.681751 898
-56.113689 56.11367 889
-52.340504 55.419353 878
-48.868919 54.977512 871
-45.604202 54.725029 867
-42.416626 54.535671 864
-39.20454 54.283195 860
-36.188797 54.283195 860
-0 0 0
-0 0 0
-0 0 0
-0 0 0
-0 0 0
-0 0 0
-23.652468 85.148865 1349
-18.921955 85.148865 1349
-14.191489 85.148865 1349
-9.4609776 85.148865 1349
-4.748045 85.464462 1354
0 85.78006 1359
4.7655783 85.78006 1359
9.5732365 86.158791 1365
14.359764 86.158791 1365
19.216515 86.474388 1370
24.020668 86.474388 1370
28.951059 86.853104 1376
33.776253 86.853104 1376
38.601353 86.853104 1376
43.42654 86.853104 1376
48.427067 87.168701 1381
53.269794 87.168701 1381
58.364998 87.547432 1387
63.228672 87.547432 1387
68.092438 87.547432 1387
72.377602 86.853104 1376
76.86615 86.474388 1370
81.014557 85.78006 1359
85.148849 85.148865 1349
89.479599 84.770149 1343
93.48774 84.138947 1333
97.793945 83.823349 1328
101.21646 82.813431 1312
104.60735 81.866631 1297
108.73471 81.551025 1292
112.91467 81.298546 1288
116.51955 80.667343 1278
119.67556 79.783669 1264
123.22424 79.215584 1255
127.11665 78.899986 1250
130.974 78.584389 1245
132.94827 77.195747 1223
136.7881 76.943268 1219
140.48405 76.62767 1214
143.78734 76.122711 1206
147.52547 75.870232 1202
151.10931 75.554626 1197
154.26881 75.049667 1189
156.83914 74.292229 1177
159.87244 73.78727 1169
162.84961 73.28231 1161
166.34578 73.029831 1157
169.22475 72.524872 1149
171.5952 71.830544 1138
174.96863 71.578072 1134
177.6828 71.073112 1126
180.50218 70.631271 1119
183.27246 70.18943 1112
186.49854 69.936943 1108
189.86845 69.747589 1105
191.81467 69.053268 1094
193.86258 68.422073 1084
196.38741 67.980232 1077
198.86304 67.538383 1070
201.28967 67.09655 1063
204.43867 66.907188 1060
206.97751 66.528473 1054
209.2744 66.086632 1047
211.72551 65.707909 1041
214.75528 65.518555 1038
216.29121 64.887352 1028
217.32921 64.129913 1016
220.89198 64.129913 1016
223.79195 63.940552 1013
225.99765 63.561829 1007
228.16127 63.183109 1001
230.28282 62.804386 995
232.36229 62.425671 989
234.63806 62.110069 984
237.36275 61.920712 981
240.80281 61.920712 981
244.98978 62.110069 984
0 0 0
0 0 0
0 0 0
0 0 0
0 0 0
366.94815 85.78006 1359
371.71365 85.78006 1359
376.47925 85.78006 1359
379.84213 85.464462 1354
381.46576 84.770149 1343
384.73749 84.454544 1338
387.97409 84.138947 1333
391.17566 83.823349 1328
392.5538 83.129028 1317
395.66425 82.813431 1312
395.68881 81.866631 1297
398.69394 81.551025 1292
401.9762 81.298546 1288
404.91483 80.982948 1283
407.81836 80.667343 1278
410.6868 80.351746 1273
410.58505 79.468071 1259
413.68149 79.215584 1255
416.41669 78.899986 1250
420.80002 78.899986 1250
422.12207 78.331902 1241
424.75549 78.016304 1236
427.70114 77.763832 1232
430.26801 77.448227 1227
431.73734 76.943268 1219
434.22357 76.62767 1214
435.59109 76.122711 1206
438.36139 75.870232 1202
439.2626 75.302147 1193
441.95926 75.049667 1189
444.62784 74.797188 1185
447.26828 74.544708 1181
451.4097 74.544708 1181
452.46521 74.039749 1173
455.02158 73.78727 1169
455.97894 73.28231 1161
456.8801 72.777344 1153
459.32425 72.524872 1149
461.74036 72.272385 1145
462.90811 71.830544 1138
465.25757 71.578072 1134
469.23407 71.578072 1134
469.87228 71.073112 1126
472.55841 70.883743 1123
474.79919 70.631271 1119
475.72845 70.18943 1112
477.90256 69.936943 1108
481.78793 69.936943 1108
485.67334 69.936943 1108
477.18723 68.169586 1080
477.85703 67.727753 1073
481.61963 67.727753 1073
487.19174 67.980232 1077
492.33603 68.169586 1080
496.12323 68.169586 1080
499.91046 68.169586 1080
0 0 0
0 0 0
0 0 0
0 0 0
0 0 0
0 0 0
0 0 0
0 0 0
0 0 0
1265.2826 160.38789 2541
1274.1929 160.38789 2541
1292.6976 161.58717 2560
1292.0138 160.38789 2541
1300.9243 160.38789 2541
1319.6289 161.58717 2560
1328.606 161.58717 2560
1337.583 161.58717 2560
1346.5601 161.58717 2560
1355.5371 161.58717 2560
1354.3871 160.38789 2541
1363.2972 160.38789 2541
1372.2078 160.38789 2541
1391.4454 161.58717 2560
1400.4225 161.58717 2560
1430.3203 163.98573 2598
1473.2278 167.83606 2659
1505.9696 170.48709 2701
-0 0 0
-0 0 0
-0 0 0
-838.4826 101.47239 1523
-833.14197 101.47239 1523
-816.9306 100.13985 1503
-811.6601 100.13985 1503
-802.63397 99.673477 1496
-797.38794 99.673477 1496
-795.84857 100.13985 1503
-793.73401 100.53962 1509
-788.44244 100.53962 1509
-783.15094 100.53962 1509
-777.85931 100.53962 1509
-769.49597 100.13985 1503
-764.2254 100.13985 1503
-758.9549 100.13985 1503
-753.68439 100.13985 1503
-751.40149 100.53962 1509
-749.57104 101.006 1516
-750.63708 101.87215 1529
-745.27539 101.87215 1529
-739.91376 101.87215 1529
-734.552 101.87215 1529
-729.19031 101.87215 1529
-727.14246 102.33854 1536
-725.04541 102.80493 1543
-722.89935 103.27131 1550
-717.46405 103.27131 1550
-718.45996 104.20409 1564
-703.40228 102.80493 1543
-691.65845 101.87215 1529
-686.29681 101.87215 1529
-0 0 0
-0 0 0
-0 0 0
-0 0 0
-0 0 0
-0 0 0
-0 0 0
-0 0 0
-0 0 0
-0 0 0
-0 0 0
-299.38519 49.037216 736
-296.80429 49.037216 736
-294.22336 49.037216 736
-291.64246 49.037216 736
-290.23978 49.237095 739
-287.64838 49.237095 739
-285.05695 49.237095 739
-282.46552 49.237095 739
-280.63153 49.37035 741
-278.40829 49.436977 742
-277.29318 49.703484 746
-274.67722 49.703484 746
-272.06122 49.703484 746
-269.80646 49.770111 747
-267.18698 49.770111 747
-264.5675 49.770111 747
-0 0 0
-0 0 0
-0 0 0
-0 0 0
-0 0 0
-0 0 0
-0 0 0
-0 0 0
-0 0 0
-0 0 0
-0 0 0
-0 0 0
-0 0 0
-370.36713 80.884758 1214
-360.98331 79.752106 1197
-356.78583 79.752106 1197
-354.06113 80.085243 1202
-349.84613 80.085243 1202
-347.93149 80.618248 1210
-346.24478 81.217896 1219
-341.97015 81.217896 1219
-337.6955 81.217896 1219
-333.4209 81.217896 1219
-329.14627 81.217896 1219
-325.93768 81.484398 1223
-322.70102 81.750908 1227
-0 0 0
-0 0 0
-0 0 0
-305.4903 81.750908 1227
-301.18762 81.750908 1227
-298.09473 82.08403 1232
-293.77454 82.08403 1232
-290.3941 82.350548 1236
-286.05988 82.350548 1236
-281.72562 82.350548 1236
-277.39136 82.350548 1236
-273.05713 82.350548 1236
-268.72287 82.350548 1236
-265.45819 82.683678 1241
-261.948 82.95018 1245
-257.58218 82.95018 1245
-254.23334 83.283318 1250
-249.85001 83.283318 1250
-246.44856 83.616455 1255
-242.04767 83.616455 1255
-237.64679 83.616455 1255
-233.24594 83.616455 1255
-229.57445 83.882957 1259
-225.15958 83.882957 1259
-221.62134 84.216095 1264
-217.1889 84.216095 1264
-211.9149 83.882957 1259
-206.84074 83.616455 1255
-200.82683 82.95018 1245
-190.30681 80.351746 1206
-185.46057 80.085243 1202
-178.07907 78.686073 1181
-169.81383 76.820534 1153
-165.19559 76.554024 1149
-157.94028 75.021614 1126
-152.48738 74.288719 1115
-148.17772 74.088837 1112
-142.85107 73.355949 1101
-135.96049 71.756905 1077
-130.95647 71.090637 1067
-125.66489 70.224495 1054
-120.11737 69.158463 1038
-115.01866 68.29232 1025
-111.09824 68.092438 1022
-105.9364 67.09304 1007
-100.87978 66.093643 992
-96.910248 65.760506 987
-92.312996 64.960991 975
-87.16172 63.69508 956
-83.634003 63.561829 954
-79.362869 62.828934 943
-74.846298 61.829533 928
-70.820641 61.163269 918
-67.23333 60.830135 913
-63.330402 60.163868 903
-59.830738 59.830734 898
-56.239929 59.364346 891
-52.340504 58.498199 878
-48.868919 58.031818 871
-45.604202 57.765312 867
-42.416626 57.56543 864
-39.20454 57.298923 860
-36.188797 57.298923 860
-0 0 0
-0 0 0
-0 0 0
-0 0 0
-0 0 0
-0 0 0
-23.652468 89.879356 1349
-18.921955 89.879356 1349
-14.191489 89.879356 1349
-9.4960451 90.212486 1354
-4.748045 90.212486 1354
0 90.545624 1359
4.7655783 90.545624 1359
9.5732365 90.945381 1365
14.412364 91.278519 1370
19.216515 91.278519 1370
24.020668 91.278519 1370
28.951059 91.678276 1376
33.776253 91.678276 1376
38.601353 91.678276 1376
43.584339 92.011414 1381
48.427067 92.011414 1381
53.269794 92.011414 1381
58.364998 92.411171 1387
63.228672 92.411171 1387
68.092438 92.411171 1387
72.640602 92.011414 1381
76.86615 91.278519 1370
81.014557 90.545624 1359
85.464447 90.212486 1354
89.479599 89.479591 1343
93.48774 88.813332 1333
97.793945 88.480202 1328
101.21646 87.414169 1312
105.01061 86.747902 1302
108.73471 86.081635 1292
112.91467 85.815125 1288
116.51955 85.148865 1278
120.05428 84.482597 1268
123.61698 83.882957 1259
127.11665 83.283318 1250
130.974 82.95018 1245
132.94827 81.484398 1223
136.7881 81.217896 1219
140.48405 80.884758 1214
143.78734 80.351746 1206
147.52547 80.085243 1202
151.10931 79.752106 1197
154.26881 79.219093 1189
156.83914 78.419571 1177
159.87244 77.886559 1169
162.84961 77.353546 1161
165.77068 76.820534 1153
169.22475 76.554024 1149
171.5952 75.821136 1138
174.35146 75.288116 1130
177.6828 75.021614 1126
180.50218 74.555222 1119
183.27246 74.088837 1112
186.49854 73.822334 1108
189.86845 73.622452 1105
191.11334 72.623055 1090
193.86258 72.223289 1084
196.93445 71.956787 1080
199.42061 71.490402 1073
201.28967 70.824135 1063
204.43867 70.624252 1060
206.97751 70.224495 1054
209.2744 69.758102 1047
211.72551 69.358345 1041
214.75528 69.158463 1038
216.29121 68.492195 1028
217.97092 67.892555 1019
220.89198 67.69268 1016
223.79195 67.492798 1013
225.32437 66.893158 1004
227.47748 66.493401 998
230.28282 66.293526 995
232.36229 65.893761 989
235.35342 65.760506 987
237.36275 65.360748 981
240.80281 65.360748 981
244.98978 65.560631 984
0 0 0
0 0 0
0 0 0
0 0 0
0 0 0
366.94815 90.545624 1359
371.71365 90.545624 1359
376.47925 90.545624 1359
379.84213 90.212486 1354
381.46576 89.479591 1343
383.29974 88.813332 1333
386.51883 88.480202 1328
389.40833 88.080437 1322
394.04416 88.080437 1322
394.15637 87.081032 1307
395.68881 86.414772 1297
398.69394 86.081635 1292
401.9762 85.815125 1288
406.49283 85.815125 1288
406.22284 84.815727 1273
407.78329 84.216095 1264
410.58505 83.882957 1259
413.68149 83.616455 1255
416.41669 83.283318 1250
420.80002 83.283318 1250
422.12207 82.683678 1241
426.47375 82.683678 1241
427.70114 82.08403 1232
428.86536 81.484398 1223
431.73734 81.217896 1219
434.22357 80.884758 1214
435.59109 80.351746 1206
438.36139 80.085243 1202
439.2626 79.485596 1193
441.95926 79.219093 1189
444.62784 78.952591 1185
447.26828 78.686073 1181
451.4097 78.686073 1181
452.46521 78.153061 1173
455.02158 77.886559 1169
455.97894 77.353546 1161
456.8801 76.820534 1153
459.32425 76.554024 1149
461.74036 76.287514 1145
462.90811 75.821136 1138
465.25757 75.554619 1134
469.23407 75.554619 1134
471.54147 75.288116 1130
473.82083 75.021614 1126
474.79919 74.555222 1119
478.72318 74.555222 1119
479.62784 74.088837 1112
481.78793 73.822334 1108
475.15335 72.223289 1084
477.18723 71.956787 1080
479.6384 71.756905 1077
483.41504 71.756905 1077
487.19174 71.756905 1077
492.33603 71.956787 1080
497.96072 72.223289 1084
501.76196 72.223289 1084
0 0 0
0 0 0
0 0 0
0 0 0
0 0 0
0 0 0
0 0 0
0 0 0
0 0 0
1274.7435 170.56424 2560
1283.7206 170.56424 2560
1292.6976 170.56424 2560
1292.0138 169.29832 2541
1300.9243 169.29832 2541
1309.8348 169.29832 2541
1379.9856 177.16026 2659
1389.3097 177.16026 2659
1346.5601 170.56424 2560
1345.4766 169.29832 2541
1354.3871 169.29832 2541
1363.2972 169.29832 2541
1372.2078 169.29832 2541
1391.4454 170.56424 2560
1400.4225 170.56424 2560
1430.3203 173.09604 2598
1462.1467 175.82774 2639
1505.9696 179.95859 2701
-0 0 0
-0 0 0
-0 0 0
-838.4826 106.81304 1523
-833.14197 106.81304 1523
-813.12592 104.91944 1496
-807.87994 104.91944 1496
-798.87836 104.42851 1489
-793.65686 104.42851 1489
-792.14197 104.91944 1496
-786.89606 104.91944 1496
-785.3075 105.41038 1503
-780.03699 105.41038 1503
-777.85931 105.83118 1509
-769.49597 105.41038 1503
-764.2254 105.41038 1503
-758.9549 105.41038 1503
-753.68439 105.41038 1503
-751.40149 105.83118 1509
-746.10999 105.83118 1509
-744.25494 106.32211 1516
-742.35083 106.81304 1523
-737.01019 106.81304 1523
-731.66949 106.81304 1523
-729.19031 107.23384 1529
-727.14246 107.72478 1536
-721.7561 107.72478 1536
-719.63464 108.21571 1543
-717.46405 108.70664 1550
-715.24432 109.19757 1557
-706.59338 108.70664 1550
-701.15802 108.70664 1550
-0 0 0
-0 0 0
-0 0 0
-0 0 0
-0 0 0
-0 0 0
-0 0 0
-0 0 0
-0 0 0
-0 0 0
-0 0 0
-0 0 0
-299.38519 51.618122 736
-296.80429 51.618122 736
-294.22336 51.618122 736
-291.64246 51.618122 736
-290.23978 51.828518 739
-287.64838 51.828518 739
-285.05695 51.828518 739
-283.22998 51.968788 741
-281.01025 52.038921 742
-279.15872 52.179188 744
-277.29318 52.319454 746
-274.67722 52.319454 746
-272.06122 52.319454 746
-269.80646 52.389587 747
-267.90231 52.529854 749
-0 0 0
-0 0 0
-0 0 0
-0 0 0
-0 0 0
-0 0 0
-0 0 0
-0 0 0
-386.45221 83.107979 1185
-382.29681 83.107979 1185
-381.9707 83.949577 1197
-379.35123 84.300247 1202
-375.1362 84.300247 1202
-374.62424 85.141846 1214
-370.36713 85.141846 1214
-360.98331 83.949577 1197
-356.78583 83.949577 1197
-354.06113 84.300247 1202
-349.84613 84.300247 1202
-347.93149 84.861313 1210
-346.24478 85.492508 1219
-343.09229 85.773048 1223
-339.91171 86.053581 1227
-334.51498 85.773048 1223
-330.22632 85.773048 1223
-325.93768 85.773048 1223
-322.70102 86.053581 1227
-0 0 0
-0 0 0
-0 0 0
-306.73517 86.404243 1232
-302.41495 86.404243 1232
-298.09473 86.404243 1232
-293.77454 86.404243 1232
-290.3941 86.684784 1236
-286.05988 86.684784 1236
-281.72562 86.684784 1236
-277.39136 86.684784 1236
-273.05713 86.684784 1236
-268.72287 86.684784 1236
-266.31381 87.315979 1245
-263 87.666649 1250
-258.61667 87.666649 1250
-254.23334 87.666649 1250
-250.84941 88.017311 1255
-246.44856 88.017311 1255
-242.04767 88.017311 1255
-237.64679 88.017311 1255
-233.24594 88.017311 1255
-229.57445 88.297844 1259
-225.15958 88.297844 1259
-221.62134 88.648506 1264
-217.1889 88.648506 1264
-211.9149 88.297844 1259
-206.84074 88.017311 1255
-200.82683 87.315979 1245
-190.938 84.861313 1210
-185.46057 84.300247 1202
-178.07907 82.827446 1181
-169.81383 80.863716 1153
-165.19559 80.583183 1149
-159.06241 79.531181 1134
-153.03444 78.479179 1119
-148.17772 77.988243 1112
-142.33209 76.936249 1097
-135.96049 75.533585 1077
-130.95647 74.832253 1067
-125.66489 73.920517 1054
-119.30733 72.307449 1031
-115.01866 71.88665 1025
-111.09824 71.676254 1022
-106.25201 70.834648 1010
-100.87978 69.57225 992
-96.910248 69.221581 987
-91.555557 67.818916 967
-87.16172 67.047455 956
-83.809334 67.047455 956
-79.615349 66.346115 946
-74.846298 65.083717 928
-70.97493 64.522652 920
-67.23333 64.031715 913
-63.330402 63.330387 903
-59.830738 62.979717 898
-55.671848 61.857586 882
-52.340504 61.577053 878
-48.981133 61.226387 873
-45.604202 60.805588 867
-42.416626 60.595188 864
-39.295715 60.454918 862
-36.272953 60.454918 862
-0 0 0
-0 0 0
-0 0 0
-0 0 0
-0 0 0
-0 0 0
-23.652468 94.609848 1349
-18.921955 94.609848 1349
-14.191489 94.609848 1349
-9.4960451 94.96051 1354
-4.748045 94.96051 1354
0 95.311172 1359
4.7866182 95.731972 1365
9.5732365 95.731972 1365
14.412364 96.082642 1370
19.216515 96.082642 1370
24.020668 96.082642 1370
28.82482 96.082642 1370
33.628971 96.082642 1370
38.601353 96.503448 1376
43.584339 96.854111 1381
48.427067 96.854111 1381
53.269794 96.854111 1381
58.364998 97.27491 1387
63.228672 97.27491 1387
68.092438 97.27491 1387
72.640602 96.854111 1381
76.86615 96.082642 1370
81.014557 95.311172 1359
85.464447 94.96051 1354
89.479599 94.189049 1343
93.48774 93.487709 1333
97.352097 92.716248 1322
101.21646 92.014908 1312
105.01061 91.313583 1302
108.73471 90.612244 1292
112.91467 90.331711 1288
116.06367 89.279709 1273
120.05428 88.929047 1268
123.61698 88.297844 1259
127.62512 88.017311 1255
130.974 87.315979 1245
133.92664 86.404243 1232
137.23694 85.773048 1223
140.48405 85.141846 1214
143.78734 84.58078 1206
146.9118 83.949577 1197
150.60434 83.669044 1193
154.26881 83.388519 1189
157.37216 82.827446 1181
160.41948 82.26638 1173
162.84961 81.424782 1161
165.77068 80.863716 1153
169.22475 80.583183 1149
172.04756 80.022118 1141
174.35146 79.250648 1130
177.6828 78.970116 1126
180.50218 78.479179 1119
183.27246 77.988243 1112
186.49854 77.707718 1108
189.18115 77.216782 1101
191.11334 76.445312 1090
193.86258 76.024513 1084
196.93445 75.74398 1080
200.16402 75.533585 1077
202.04712 74.832253 1067
204.43867 74.341316 1060
206.97751 73.920517 1054
209.2744 73.429581 1047
211.72551 73.008781 1041
214.75528 72.798378 1038
216.92241 72.307449 1031
219.25436 71.88665 1025
220.89198 71.255455 1016
223.12918 70.834648 1010
225.32437 70.413849 1004
227.47748 69.99305 998
230.28282 69.782654 995
232.36229 69.361855 989
235.35342 69.221581 987
238.81453 69.221581 987
240.80281 68.800781 981
244.24287 68.800781 981
0 0 0
0 0 0
0 0 0
0 0 0
0 0 0
366.94815 95.311172 1359
371.71365 95.311172 1359
376.47925 95.311172 1359
379.84213 94.96051 1354
381.46576 94.189049 1343
383.29974 93.487709 1333
386.51883 93.137047 1328
389.40833 92.716248 1322
394.04416 92.716248 1322
394.15637 91.664246 1307
395.68881 90.962914 1297
398.69394 90.612244 1292
401.9762 90.331711 1288
406.49283 90.331711 1288
406.22284 89.279709 1273
407.78329 88.648506 1264
410.58505 88.297844 1259
413.68149 88.017311 1255
416.41669 87.666649 1250
420.80002 87.666649 1250
423.48264 87.315979 1245
426.47375 87.035446 1241
427.70114 86.404243 1232
428.86536 85.773048 1223
431.73734 85.492508 1219
434.22357 85.141846 1214
435.59109 84.58078 1206
438.36139 84.300247 1202
439.2626 83.669044 1193
441.95926 83.388519 1189
444.62784 83.107979 1185
447.26828 82.827446 1181
451.4097 82.827446 1181
452.46521 82.26638 1173
455.02158 81.985847 1169
455.97894 81.424782 1161
456.8801 80.863716 1153
459.32425 80.583183 1149
461.74036 80.302643 1145
462.90811 79.811714 1138
465.25757 79.531181 1134
469.23407 79.531181 1134
471.54147 79.250648 1130
472.55841 78.75972 1123
476.49643 78.75972 1123
478.72318 78.479179 1119
480.92178 78.198647 1115
481.78793 77.707718 1108
475.15335 76.024513 1084
477.18723 75.74398 1080
479.6384 75.533585 1077
483.41504 75.533585 1077
488.54883 75.74398 1080
492.33603 75.74398 1080
499.33884 76.234917 1087
503.1506 76.234917 1087
0 0 0
0 0 0
0 0 0
0 0 0
0 0 0
0 0 0
0 0 0
0 0 0
0 0 0
1274.7435 179.54129 2560
1283.7206 179.54129 2560
1292.6976 179.54129 2560
1301.6747 179.54129 2560
1310.6517 179.54129 2560
1319.6289 179.54129 2560
1369.6058 185.08182 2639
1378.8599 185.08182 2639
1336.566 178.20876 2541
1345.4766 178.20876 2541
1354.3871 178.20876 2541
1363.2972 178.20876 2541
1372.2078 178.20876 2541
1391.4454 179.54129 2560
1400.4225 179.54129 2560
1419.86 180.87383 2579
1450.5116 183.60902 2618
1482.552 186.4845 2659
-0 0 0
-0 0 0
-0 0 0
-819.76398 109.64993 1489
-814.5426 109.64993 1489
-809.32117 109.64993 1489
-804.09973 109.64993 1489
-798.87836 109.64993 1489
-793.65686 109.64993 1489
-788.43549 109.64993 1489
-783.21405 109.64993 1489
-781.65009 110.16541 1496
-776.40411 110.16541 1496
-771.15808 110.16541 1496
-765.91211 110.16541 1496
-760.66614 110.16541 1496
-755.42023 110.16541 1496
-750.17426 110.16541 1496
-744.92822 110.16541 1496
-739.68225 110.16541 1496
-734.43628 110.16541 1496
-738.93884 111.63821 1516
-737.01019 112.15369 1523
-731.66949 112.15369 1523
-729.19031 112.59553 1529
-727.14246 113.11101 1536
-721.7561 113.11101 1536
-719.63464 113.6265 1543
-717.46405 114.14198 1550
-712.02869 114.14198 1550
-706.59338 114.14198 1550
-701.15802 114.14198 1550
-0 0 0
-0 0 0
-0 0 0
-0 0 0
-0 0 0
-0 0 0
-0 0 0
-0 0 0
-0 0 0
-0 0 0
-0 0 0
-0 0 0
-0 0 0
-296.80429 54.19902 736
-294.22336 54.19902 736
-292.435 54.346306 738
-290.23978 54.419945 739
-288.42688 54.567223 741
-285.8284 54.567223 741
-283.61218 54.640862 742
-282.52515 54.935421 746
-279.90915 54.935421 746
-277.29318 54.935421 746
-274.67722 54.935421 746
-272.06122 54.935421 746
-270.52884 55.156345 749
-267.90231 55.156345 749
-0 0 0
-0 0 0
-0 0 0
-0 0 0
-0 0 0
-0 0 0
-0 0 0
-385.33359 86.085136 1169
-381.23431 86.085136 1169
-382.29681 87.263374 1185
-381.9707 88.147057 1197
-379.35123 88.515259 1202
-375.1362 88.515259 1202
-370.9212 88.515259 1202
-366.70615 88.515259 1202
-362.49118 88.515259 1202
-358.27615 88.515259 1202
-354.06113 88.515259 1202
-349.84613 88.515259 1202
-347.93149 89.104378 1210
-346.24478 89.767136 1219
-344.21442 90.356255 1227
-339.91171 90.356255 1227
-334.51498 90.061699 1223
-330.22632 90.061699 1223
-325.93768 90.061699 1223
-0 0 0
-0 0 0
-0 0 0
-0 0 0
-0 0 0
-302.41495 90.724457 1232
-298.09473 90.724457 1232
-294.72833 91.019012 1236
-290.3941 91.019012 1236
-286.05988 91.019012 1236
-281.72562 91.019012 1236
-277.39136 91.019012 1236
-273.05713 91.019012 1236
-269.80994 91.387215 1241
-266.31381 91.681778 1245
-263 92.049973 1250
-258.61667 92.049973 1250
-255.25027 92.418175 1255
-250.84941 92.418175 1255
-246.44856 92.418175 1255
-242.04767 92.418175 1255
-237.64679 92.418175 1255
-233.24594 92.418175 1255
-229.57445 92.71273 1259
-226.05379 93.080933 1264
-222.32268 93.375488 1268
-217.1889 93.080933 1264
-211.9149 92.71273 1259
-206.84074 92.418175 1255
-200.82683 91.681778 1245
-190.938 89.104378 1210
-183.45477 87.55793 1189
-178.07907 86.968819 1181
-169.81383 84.906898 1153
-165.19559 84.612343 1149
-159.06241 83.507736 1134
-153.03444 82.403137 1119
-148.17772 81.887657 1112
-142.33209 80.783058 1097
-137.2229 80.046654 1087
-130.46555 78.279297 1063
-125.18799 77.321983 1050
-119.30733 75.922821 1031
-115.01866 75.48098 1025
-111.09824 75.260056 1022
-106.25201 74.376381 1010
-101.18485 73.271782 995
-96.910248 72.682663 987
-91.271515 70.988937 964
-87.435242 70.620743 959
-83.809334 70.399818 956
-79.783676 69.810699 948
-74.846298 68.337906 928
-71.206367 67.969704 923
-67.380615 67.380577 915
-63.681068 66.865105 908
-60.030617 66.349625 901
-55.671848 64.950462 882
-52.340504 64.655907 878
-48.981133 64.287704 873
-45.604202 63.845863 867
-42.416626 63.624939 864
-39.295715 63.477665 862
-36.272953 63.477665 862
-0 0 0
-0 0 0
-0 0 0
-0 0 0
-0 0 0
-0 0 0
-23.740133 99.708534 1354
-18.921955 99.340332 1349
-14.191489 99.340332 1349
-9.4960451 99.708534 1354
-4.748045 99.708534 1354
0 91.019012 1236
4.32023 90.724457 1232
8.6053934 90.356255 1227
12.908008 90.356255 1227
17.210705 90.356255 1227
21.513401 90.356255 1227
25.921297 90.724457 1232
33.506237 100.51858 1365
38.433029 100.88677 1370
43.42654 101.32861 1376
48.427067 101.69681 1381
53.501236 102.13865 1387
58.364998 102.13865 1387
63.456604 102.50685 1392
67.797874 101.69681 1381
72.062004 100.88677 1370
76.585617 100.51858 1365
81.014557 100.07674 1359
85.148849 99.340332 1349
89.479599 98.898491 1343
93.838402 98.530289 1338
97.352097 97.352051 1322
101.21646 96.615654 1312
105.01061 95.879257 1302
108.73471 95.14286 1292
112.91467 94.848289 1288
116.06367 93.74369 1273
120.05428 93.375488 1268
123.61698 92.71273 1259
127.62512 92.418175 1255
130.974 91.681778 1245
133.92664 90.724457 1232
137.23694 90.061699 1223
140.48405 89.398933 1214
143.78734 88.809814 1206
146.9118 88.147057 1197
150.60434 87.852501 1193
153.74985 87.263374 1185
157.37216 86.968819 1181
160.41948 86.3797 1173
162.84961 85.496017 1161
165.77068 84.906898 1153
168.63564 84.317772 1145
172.65071 84.317772 1145
174.96863 83.507736 1134
177.6828 82.918617 1126
180.50218 82.403137 1119
183.27246 81.887657 1112
186.49854 81.593102 1108
189.18115 81.077614 1101
192.34067 80.783058 1097
193.86258 79.825737 1084
196.93445 79.531181 1080
200.16402 79.310257 1077
202.61519 78.794785 1070
204.43867 78.05838 1060
206.97751 77.616539 1054
209.2744 77.101059 1047
211.72551 76.659225 1041
214.75528 76.438301 1038
216.92241 75.922821 1031
219.25436 75.48098 1025
220.89198 74.818222 1016
223.12918 74.376381 1010
225.32437 73.93454 1004
227.47748 73.492699 998
230.28282 73.271782 995
232.36229 72.829941 989
235.35342 72.682663 987
238.81453 72.682663 987
240.80281 72.240822 981
244.24287 72.240822 981
0 0 0
0 0 0
0 0 0
0 0 0
0 0 0
366.94815 100.07674 1359
371.71365 100.07674 1359
375.09412 99.708534 1354
379.84213 99.708534 1354
381.46576 98.898491 1343
384.73749 98.530289 1338
387.97409 98.162094 1333
389.40833 97.352051 1322
392.5538 96.983849 1317
394.15637 96.247459 1307
395.68881 95.511055 1297
398.69394 95.14286 1292
401.9762 94.848289 1288
404.91483 94.480095 1283
406.22284 93.74369 1273
409.07373 93.375488 1268
412.21567 93.080933 1264
413.68149 92.418175 1255
416.41669 92.049973 1250
420.80002 92.049973 1250
423.48264 91.681778 1245
427.84839 91.681778 1245
427.70114 90.724457 1232
428.86536 90.061699 1223
431.73734 89.767136 1219
434.22357 89.398933 1214
435.59109 88.809814 1206
438.36139 88.515259 1202
440.73541 88.147057 1197
443.44611 87.852501 1193
446.12869 87.55793 1189
448.78317 87.263374 1185
451.4097 86.968819 1181
454.00815 86.674255 1177
455.02158 86.085136 1169
455.97894 85.496017 1161
456.8801 84.906898 1153
460.92328 84.906898 1153
