# .PCD v0.7 - Point Cloud Data file format
VERSION 0.7
FIELDS x y z rgb
SIZE 4 4 4 4
TYPE F F F F
COUNT 1 1 1 1
WIDTH 1389
HEIGHT 1
VIEWPOINT 0 0 0 1 0 0 0
POINTS 1389
DATA ascii
456.53998 662.74194 -732.69434 5.0278589e-42
452.10754 662.74194 -732.69434 3.6013371e-42
445.90427 666.92407 -729.79602 3.6013371e-42
441.48935 666.92407 -729.79602 3.6013371e-42
437.07443 666.92407 -729.79602 4.3202032e-42
432.65958 666.92407 -729.79602 4.3202032e-42
428.24466 666.92407 -729.79602 3.5999358e-42
423.8298 666.92407 -729.79602 3.6013371e-42
419.41489 666.92407 -729.79602 2.8810696e-42
413.68149 670.26978 -727.47736 3.2412033e-42
409.28061 670.26978 -727.47736 3.6013371e-42
404.87976 670.26978 -727.47736 3.2412033e-42
400.47888 670.26978 -727.47736 3.6013371e-42
396.078 670.26978 -727.47736 3.6013371e-42
391.67715 670.26978 -727.47736 4.6817382e-42
387.27628 670.26978 -727.47736 5.3879926e-42
382.87543 670.26978 -727.47736 5.0278589e-42
378.47455 670.26978 -727.47736 5.0278589e-42
372.58334 674.45203 -724.57904 3.9474578e-42
368.20001 674.45203 -724.57904 3.6013371e-42
365.27194 670.26978 -727.47736 4.3202032e-42
360.87109 670.26978 -727.47736 5.3879926e-42
356.47021 670.26978 -727.47736 5.0278589e-42
350.66669 674.45203 -724.57904 6.4669924e-42
346.28336 674.45203 -724.57904 5.3879926e-42
341.90002 674.45203 -724.57904 7.1858585e-42
339.94678 666.92407 -729.79602 7.1858585e-42
336.86444 662.74194 -732.69434 7.5473935e-42
332.43201 662.74194 -732.69434 7.9075272e-42
326.70212 666.92407 -729.79602 6.1334834e-42
322.28723 666.92407 -729.79602 6.8537508e-42
317.87231 666.92407 -729.79602 6.1208717e-42
313.45746 666.92407 -729.79602 7.1998715e-42
309.04254 666.92407 -729.79602 9.72361e-42
304.62762 666.92407 -729.79602 1.0083744e-41
300.21277 666.92407 -729.79602 1.1152934e-41
295.79785 666.92407 -729.79602 1.1874603e-41
291.383 666.92407 -729.79602 7.479921e-40
286.05634 670.26978 -727.47736 5.6360084e-40
281.65546 670.26978 -727.47736 1.1165546e-41
277.25461 670.26978 -727.47736 1.0804011e-41
272.85373 670.26978 -727.47736 1.0804011e-41
268.45288 670.26978 -727.47736 4.3216045e-42
264.89362 666.92407 -729.79602 6.1250756e-42
260.4787 666.92407 -729.79602 2.8824709e-42
257.08075 662.74194 -732.69434 1.4012985e-44
252.64832 662.74194 -732.69434 7.0064923e-45
248.21591 662.74194 -732.69434 1.2611686e-44
241.08334 674.45203 -724.57904 7.0064923e-45
236.7 674.45203 -724.57904 0
233.24594 670.26978 -727.47736 0
228.84508 670.26978 -727.47736 0
224.44423 670.26978 -727.47736 0
220.04333 670.26978 -727.47736 0
215.64246 670.26978 -727.47736 0
211.9149 666.92407 -729.79602 0
208.32405 662.74194 -732.69434 0
203.89165 662.74194 -732.69434 0
198.67021 666.92407 -729.79602 0
194.25529 666.92407 -729.79602 0
189.84042 666.92407 -729.79602 0
185.42552 666.92407 -729.79602 0
181.01065 666.92407 -729.79602 0
176.59573 666.92407 -729.79602 0
172.18083 666.92407 -729.79602 0
168.43222 662.74194 -732.69434 0
163.99979 662.74194 -732.69434 0
159.56738 662.74194 -732.69434 0
155.13493 662.74194 -732.69434 0
150.7025 662.74194 -732.69434 0
145.22861 670.26978 -727.47736 0
140.82773 670.26978 -727.47736 0
136.86171 666.92407 -729.79602 0
132.44681 666.92407 -729.79602 0
128.54036 662.74194 -732.69434 0
124.10796 662.74194 -732.69434 0
119.67551 662.74194 -732.69434 0
115.24311 662.74194 -732.69434 0
110.81067 662.74194 -732.69434 0
106.37823 662.74194 -732.69434 0
101.94582 662.74194 -732.69434 0
97.513382 662.74194 -732.69434 0
93.080978 662.74194 -732.69434 0
88.648537 662.74194 -732.69434 0
84.216095 662.74194 -732.69434 0
79.783691 662.74194 -732.69434 0
75.35125 662.74194 -732.69434 0
71.143272 659.39612 -735.01294 0
66.6968 659.39612 -735.01294 0
62.250332 659.39612 -735.01294 0
57.803905 659.39612 -735.01294 0
53.357433 659.39612 -735.01294 0
48.911007 659.39612 -735.01294 0
44.63987 655.21387 -737.91132 0
40.175861 655.21387 -737.91132 0
35.711903 655.21387 -737.91132 0
31.247898 655.21387 -737.91132 0
26.678738 659.39612 -735.01294 0
22.232267 659.39612 -735.01294 0
17.785797 659.39612 -735.01294 0
13.339369 659.39612 -735.01294 0
8.9279652 655.21387 -737.91132 0
4.4640036 655.21387 -737.91132 0
0 655.21387 -737.91132 0
-4.4640036 655.21387 -737.91132 0
-8.9280071 655.21387 -737.91132 0
-13.391926 655.21387 -737.91132 0
-17.85593 655.21387 -737.91132 0
-22.4076 651.03174 -740.80957 0
-26.889137 651.03174 -740.80957 0
-31.370674 651.03174 -740.80957 0
-35.852127 651.03174 -740.80957 0
-40.333664 651.03174 -740.80957 0
-44.815201 651.03174 -740.80957 0
-49.296741 651.03174 -740.80957 0
-53.778275 651.03174 -740.80957 0
-58.259727 651.03174 -740.80957 0
-62.986729 646.84949 -743.70789 0
-67.485802 646.84949 -743.70789 0
-71.984879 646.84949 -743.70789 0
-76.483948 646.84949 -743.70789 0
-80.982925 646.84949 -743.70789 0
-85.481995 646.84949 -743.70789 0
-89.981071 646.84949 -743.70789 0
-94.848343 642.66736 -746.60626 0
-99.364944 642.66736 -746.60626 0
-103.88146 642.66736 -746.60626 0
-108.39806 642.66736 -746.60626 0
-112.91467 642.66736 -746.60626 0
-117.43127 642.66736 -746.60626 0
-121.94788 642.66736 -746.60626 0
-126.46439 642.66736 -746.60626 0
-131.38777 639.32153 -748.92493 0
-135.91841 639.32153 -748.92493 0
-140.44904 639.32153 -748.92493 0
-145.54073 635.1394 -751.82318 0
-150.08882 635.1394 -751.82318 0
-154.63696 635.1394 -751.82318 0
-158.57147 639.32153 -748.92493 0
-163.10211 639.32153 -748.92493 0
-168.28146 635.1394 -751.82318 0
-172.82954 635.1394 -751.82318 0
-177.3777 635.1394 -751.82318 0
-181.92587 635.1394 -751.82318 0
-186.47404 635.1394 -751.82318 0
-191.0222 635.1394 -751.82318 0
-196.32422 630.95715 -754.72156 0
-201.66138 626.77502 -757.61981 0
-207.03362 622.59277 -760.51813 0
-211.63438 622.59277 -760.51813 0
-216.23514 622.59277 -760.51813 0
-220.83582 622.59277 -760.51813 0
-225.43657 622.59277 -760.51813 0
-230.03734 622.59277 -760.51813 0
-234.63811 622.59277 -760.51813 0
-239.23886 622.59277 -760.51813 0
-242.91028 626.77502 -757.61981 0
-247.4935 626.77502 -757.61981 0
-252.07674 626.77502 -757.61981 0
-257.64185 622.59277 -760.51813 0
-262.24261 622.59277 -760.51813 0
-266.84329 622.59277 -760.51813 0
-270.40958 626.77502 -757.61981 0
-274.9928 626.77502 -757.61981 0
-279.57605 626.77502 -757.61981 0
-285.24634 622.59277 -760.51813 0
-289.84702 622.59277 -760.51813 0
-294.44778 622.59277 -760.51813 0
-300.1882 618.41064 -763.4165 0
-304.80649 618.41064 -763.4165 0
-309.4248 618.41064 -763.4165 0
-314.043 618.41064 -763.4165 0
-317.45154 622.59277 -760.51813 0
-322.05228 622.59277 -760.51813 0
-743.29767 63.015503 -1148.3129 0
-733.2019 100.65527 -1122.228 0
-739.99078 100.65527 -1122.228 0
-746.77979 100.65527 -1122.228 0
-757.85034 91.454346 -1128.6042 0
-769.39075 81.417236 -1135.5603 0
716.81183 627.66992 -751.57123 2.775692e-41
709.51093 631.86475 -748.685 2.0208125e-41
704.96277 631.86475 -748.685 3.281841e-42
543.73676 711.56622 -693.84686 0
539.52173 711.56622 -693.84686 0
535.3067 711.56622 -693.84686 0
532.85907 708.21033 -696.15576 0
530.38336 704.85449 -698.46478 3.7094893e-40
527.87958 701.49866 -700.77374 5.0278589e-42
523.6225 701.49866 -700.77374 5.3879926e-42
521.50446 697.30383 -703.66003 1.0818024e-42
517.22986 697.30383 -703.66003 3.6027384e-42
514.63843 693.948 -705.96899 3.253815e-42
521.6167 671.29602 -721.55457 7.328791e-43
519.30231 667.1012 -724.44073 0
514.90143 667.1012 -724.44073 0
510.50055 667.1012 -724.44073 0
504.08334 671.29602 -721.55457 0
499.70001 671.29602 -721.55457 0
495.31668 671.29602 -721.55457 0
490.93335 671.29602 -721.55457 0
486.55002 671.29602 -721.55457 0
482.16669 671.29602 -721.55457 3.5873241e-42
475.87222 675.49084 -718.66833 3.9474578e-42
471.50641 675.49084 -718.66833 3.9474578e-42
467.14062 675.49084 -718.66833 4.3089928e-42
464.63336 671.29602 -721.55457 4.6677252e-42
462.091 667.1012 -724.44073 4.6677252e-42
457.69016 667.1012 -724.44073 5.0278589e-42
453.28928 667.1012 -724.44073 3.9474578e-42
448.88843 667.1012 -724.44073 2.8726619e-42
442.71667 671.29602 -721.55457 3.2327956e-42
438.33334 671.29602 -721.55457 4.6677252e-42
433.95001 671.29602 -721.55457 4.6677252e-42
429.56668 671.29602 -721.55457 4.3117954e-42
426.88409 667.1012 -724.44073 4.3117954e-42
422.48322 667.1012 -724.44073 5.3879926e-42
418.08234 667.1012 -724.44073 5.3879926e-42
412.03336 671.29602 -721.55457 4.3202032e-42
407.65002 671.29602 -721.55457 5.4020056e-42
403.26669 671.29602 -721.55457 3.6139487e-42
398.88336 671.29602 -721.55457 4.3342162e-42
394.5 671.29602 -721.55457 5.0418719e-42
390.11667 671.29602 -721.55457 5.4020056e-42
385.73334 671.29602 -721.55457 4.3202032e-42
381.35001 671.29602 -721.55457 3.9600695e-42
376.96667 671.29602 -721.55457 3.6013371e-42
372.58334 671.29602 -721.55457 7.2012728e-42
368.20001 671.29602 -721.55457 8.2718648e-42
363.81668 671.29602 -721.55457 7.9117311e-42
359.43335 671.29602 -721.55457 8.2732661e-42
355.05002 671.29602 -721.55457 8.2732661e-42
350.66669 671.29602 -721.55457 9.9392699e-41
346.28336 671.29602 -721.55457 5.3978017e-42
341.90002 671.29602 -721.55457 5.7523302e-42
338.86676 667.1012 -724.44073 3.9516617e-42
334.46588 667.1012 -724.44073 3.9516617e-42
331.117 663.74524 -726.74976 3.2327956e-42
325.66415 667.1012 -724.44073 3.5873241e-43
321.26328 667.1012 -724.44073 1.0761972e-42
316.86243 667.1012 -724.44073 0
312.46155 667.1012 -724.44073 0
308.06067 667.1012 -724.44073 0
303.65982 667.1012 -724.44073 0
299.25894 667.1012 -724.44073 0
295.79785 663.74524 -726.74976 0
290.45721 667.1012 -724.44073 0
286.05634 667.1012 -724.44073 0
281.65546 667.1012 -724.44073 0
277.25461 667.1012 -724.44073 0
272.85373 667.1012 -724.44073 0
268.45288 667.1012 -724.44073 0
264.89362 663.74524 -726.74976 0
260.4787 663.74524 -726.74976 0
256.06384 663.74524 -726.74976 0
251.64893 663.74524 -726.74976 0
246.44856 667.1012 -724.44073 0
241.08334 671.29602 -721.55457 0
236.7 671.29602 -721.55457 0
233.24594 667.1012 -724.44073 0
228.84508 667.1012 -724.44073 0
224.44423 667.1012 -724.44073 0
220.04333 667.1012 -724.44073 0
215.64246 667.1012 -724.44073 0
211.9149 663.74524 -726.74976 0
208.32405 659.55054 -729.63593 0
203.89165 659.55054 -729.63593 0
198.67021 663.74524 -726.74976 0
194.25529 663.74524 -726.74976 0
189.84042 663.74524 -726.74976 0
185.42552 663.74524 -726.74976 0
181.01065 663.74524 -726.74976 0
177.29707 659.55054 -729.63593 0
172.86464 659.55054 -729.63593 0
168.43222 659.55054 -729.63593 0
163.99979 659.55054 -729.63593 0
160.07234 656.1947 -731.94489 0
155.62587 656.1947 -731.94489 0
151.17941 656.1947 -731.94489 0
145.6915 663.74524 -726.74976 0
141.27658 663.74524 -726.74976 0
136.86171 663.74524 -726.74976 0
132.97281 659.55054 -729.63593 0
128.54036 659.55054 -729.63593 0
124.10796 659.55054 -729.63593 0
119.67551 659.55054 -729.63593 0
115.24311 659.55054 -729.63593 0
111.16134 656.1947 -731.94489 0
106.71487 656.1947 -731.94489 0
102.26843 656.1947 -731.94489 0
97.821968 656.1947 -731.94489 0
93.080978 659.55054 -729.63593 0
88.648537 659.55054 -729.63593 0
84.216095 659.55054 -729.63593 0
79.783691 659.55054 -729.63593 0
75.35125 659.55054 -729.63593 0
71.143272 656.1947 -731.94489 0
66.6968 656.1947 -731.94489 0
62.250332 656.1947 -731.94489 0
57.803905 656.1947 -731.94489 0
53.567833 651.99988 -734.83118 0
49.103874 651.99988 -734.83118 0
44.63987 651.99988 -734.83118 0
40.175861 651.99988 -734.83118 0
35.711903 651.99988 -734.83118 0
31.247898 651.99988 -734.83118 0
26.783937 651.99988 -734.83118 0
22.319935 651.99988 -734.83118 0
17.785797 656.1947 -731.94489 0
13.339369 656.1947 -731.94489 0
8.9279652 651.99988 -734.83118 0
4.4640036 651.99988 -734.83118 0
0 651.99988 -734.83118 0
-4.4815373 647.80505 -737.71735 0
-8.9280071 651.99988 -734.83118 0
-13.391926 651.99988 -734.83118 0
-17.85593 651.99988 -734.83118 0
-22.4076 647.80505 -737.71735 0
-26.889137 647.80505 -737.71735 0
-31.493408 643.61023 -740.60352 0
-35.852127 647.80505 -737.71735 0
-40.333664 647.80505 -737.71735 0
-44.990536 643.61023 -740.60352 0
-49.489609 643.61023 -740.60352 0
-54.199074 639.41541 -743.48981 0
-58.715595 639.41541 -743.48981 0
-63.232197 639.41541 -743.48981 0
-67.959206 636.05957 -745.79877 0
-72.265411 639.41541 -743.48981 0
-76.782013 639.41541 -743.48981 0
-81.298523 639.41541 -743.48981 0
-85.815132 639.41541 -743.48981 0
-90.612267 636.05957 -745.79877 0
-95.142899 636.05957 -745.79877 0
-99.364944 639.41541 -743.48981 0
-103.88146 639.41541 -743.48981 0
-108.39806 639.41541 -743.48981 0
-113.26534 636.05957 -745.79877 0
-117.79597 636.05957 -745.79877 0
-122.32659 636.05957 -745.79877 0
-126.85715 636.05957 -745.79877 0
-131.38777 636.05957 -745.79877 0
-135.91841 636.05957 -745.79877 0
-140.99257 631.86475 -748.685 0
-146.10179 627.66992 -751.57123 0
-151.24602 623.4751 -754.4574 0
-155.82924 623.4751 -754.4574 0
-160.41248 623.4751 -754.4574 0
-164.99571 623.4751 -754.4574 0
-170.22766 619.28027 -757.34363 0
-174.16208 623.4751 -754.4574 0
-178.7453 623.4751 -754.4574 0
-183.32854 623.4751 -754.4574 0
-187.91177 623.4751 -754.4574 0
-192.495 623.4751 -754.4574 0
-197.83208 619.28027 -757.34363 0
-202.43283 619.28027 -757.34363 0
-207.8226 615.08545 -760.22986 0
-212.44092 615.08545 -760.22986 0
-217.0592 615.08545 -760.22986 0
-221.67741 615.08545 -760.22986 0
-225.43657 619.28027 -757.34363 0
-230.03734 619.28027 -757.34363 0
-234.63811 619.28027 -757.34363 0
-239.23886 619.28027 -757.34363 0
-243.83955 619.28027 -757.34363 0
-248.44031 619.28027 -757.34363 0
-253.04108 619.28027 -757.34363 0
-257.64185 619.28027 -757.34363 0
-262.24261 619.28027 -757.34363 0
-266.84329 619.28027 -757.34363 0
-297.71951 512.73193 -830.65363 0
-302.76562 512.73193 -830.65363 0
-282.78464 610.89062 -763.11609 0
-287.42047 610.89062 -763.11609 0
-292.05621 610.89062 -763.11609 0
-296.69205 610.89062 -763.11609 0
-301.32788 610.89062 -763.11609 0
-305.96368 610.89062 -763.11609 0
-310.59955 610.89062 -763.11609 0
-316.66602 605.85681 -766.57953 0
-321.32288 605.85681 -766.57953 0
-736.35101 58.013916 -1143.5197 0
-743.29767 58.013916 -1143.5197 0
-746.07837 67.242432 -1137.1699 0
-752.98657 67.242432 -1137.1699 0
-759.89471 67.242432 -1137.1699 0
716.81183 624.38257 -748.4209 1.3002648e-41
709.51093 628.59009 -745.54675 4.9045446e-44
704.96277 628.59009 -745.54675 5.0446745e-44
705.81482 620.17517 -751.29504 7.4408948e-43
541.31714 705.16547 -693.23773 7.1858585e-42
537.08813 705.16547 -693.23773 4.6649226e-42
532.85907 705.16547 -693.23773 5.0278589e-42
530.38336 701.7995 -695.53705 6.4683937e-42
530.05371 694.22607 -700.71051 5.4062095e-42
525.77911 694.22607 -700.71051 0
521.50446 694.22607 -700.71051 0
517.22986 694.22607 -700.71051 0
514.63843 690.86011 -703.00977 2.1734139e-42
515.77454 679.92078 -710.48248 1.0930128e-42
515.16443 672.34741 -715.65588 0
510.79861 672.34741 -715.65588 0
506.43283 672.34741 -715.65588 0
502.06702 672.34741 -715.65588 0
496.10214 675.71338 -713.35657 3.5873241e-43
491.7504 675.71338 -713.35657 0
488.9696 672.34741 -715.65588 0
483.04688 675.71338 -713.35657 0
478.6951 675.71338 -713.35657 2.8025969e-45
474.34329 675.71338 -713.35657 2.5237385e-42
469.99152 675.71338 -713.35657 3.2412033e-42
465.63977 675.71338 -713.35657 2.8810696e-42
462.77481 672.34741 -715.65588 2.5265411e-42
460.25003 668.14001 -718.53003 2.8866748e-42
455.86667 668.14001 -718.53003 3.6139487e-42
451.48334 668.14001 -718.53003 3.253815e-42
447.10001 668.14001 -718.53003 2.1650061e-42
440.94583 672.34741 -715.65588 6.4866106e-42
436.58002 672.34741 -715.65588 1.4545478e-42
432.2142 672.34741 -715.65588 3.2552163e-42
427.84842 672.34741 -715.65588 1.098618e-42
425.18335 668.14001 -718.53003 1.6815582e-44
420.80002 668.14001 -718.53003 7.1746481e-43
416.41669 668.14001 -718.53003 3.2384008e-42
410.38522 672.34741 -715.65588 0
406.01941 672.34741 -715.65588 1.0789998e-42
401.65363 672.34741 -715.65588 1.4012985e-45
397.28781 672.34741 -715.65588 0
392.92203 672.34741 -715.65588 0
390.11667 668.14001 -718.53003 0
385.73334 668.14001 -718.53003 0
381.35001 668.14001 -718.53003 0
376.96667 668.14001 -718.53003 0
371.09302 672.34741 -715.65588 0
366.7272 672.34741 -715.65588 0
362.36142 672.34741 -715.65588 0
359.43335 668.14001 -718.53003 0
355.05002 668.14001 -718.53003 0
350.66669 668.14001 -718.53003 0
346.28336 668.14001 -718.53003 0
341.90002 668.14001 -718.53003 0
337.51669 668.14001 -718.53003 0
334.46588 663.9325 -721.40417 0
330.065 663.9325 -721.40417 0
325.66415 663.9325 -721.40417 0
321.26328 663.9325 -721.40417 0
316.86243 663.9325 -721.40417 0
312.46155 663.9325 -721.40417 0
308.06067 663.9325 -721.40417 0
303.65982 663.9325 -721.40417 0
299.25894 663.9325 -721.40417 0
295.79785 660.56665 -723.70349 0
290.45721 663.9325 -721.40417 0
286.05634 663.9325 -721.40417 0
281.65546 663.9325 -721.40417 0
277.25461 663.9325 -721.40417 0
272.85373 663.9325 -721.40417 0
268.45288 663.9325 -721.40417 0
264.89362 660.56665 -723.70349 0
260.4787 660.56665 -723.70349 0
256.06384 660.56665 -723.70349 0
251.64893 660.56665 -723.70349 0
246.44856 663.9325 -721.40417 0
242.04767 663.9325 -721.40417 0
237.64679 663.9325 -721.40417 0
233.98936 660.56665 -723.70349 0
229.57445 660.56665 -723.70349 0
224.44423 663.9325 -721.40417 0
220.04333 663.9325 -721.40417 0
216.32977 660.56665 -723.70349 0
211.9149 660.56665 -723.70349 0
208.32405 656.35913 -726.57758 0
203.89165 656.35913 -726.57758 0
199.45921 656.35913 -726.57758 0
194.25529 660.56665 -723.70349 0
189.84042 660.56665 -723.70349 0
185.42552 660.56665 -723.70349 0
181.01065 660.56665 -723.70349 0
177.29707 656.35913 -726.57758 0
173.41168 652.99316 -728.87683 0
168.96524 652.99316 -728.87683 0
164.51877 652.99316 -728.87683 0
160.07234 652.99316 -728.87683 0
155.62587 652.99316 -728.87683 0
151.17941 652.99316 -728.87683 0
146.2701 656.35913 -726.57758 0
141.83765 656.35913 -726.57758 0
137.40524 656.35913 -726.57758 0
133.3936 652.99316 -728.87683 0
128.94713 652.99316 -728.87683 0
124.5007 652.99316 -728.87683 0
120.05424 652.99316 -728.87683 0
115.60781 652.99316 -728.87683 0
111.16134 652.99316 -728.87683 0
106.71487 652.99316 -728.87683 0
102.6717 648.78577 -731.75098 0
97.821968 652.99316 -728.87683 0
93.375542 652.99316 -728.87683 0
88.92907 652.99316 -728.87683 0
84.482597 652.99316 -728.87683 0
80.036171 652.99316 -728.87683 0
75.887772 648.78577 -731.75098 0
71.423805 648.78577 -731.75098 0
66.959801 648.78577 -731.75098 0
62.495796 648.78577 -731.75098 0
58.031837 648.78577 -731.75098 0
53.567833 648.78577 -731.75098 0
49.296741 644.57837 -734.62512 0
44.815201 644.57837 -734.62512 0
40.175861 648.78577 -731.75098 0
35.711903 648.78577 -731.75098 0
31.247898 648.78577 -731.75098 0
26.783937 648.78577 -731.75098 0
22.319935 648.78577 -731.75098 0
17.85593 648.78577 -731.75098 0
13.391969 648.78577 -731.75098 0
8.9279652 648.78577 -731.75098 0
4.4640036 648.78577 -731.75098 0
0 640.37085 -737.49921 0
-4.5166039 636.16345 -740.37335 0
-9.0332079 636.16345 -740.37335 0
-13.497126 640.37085 -737.49921 0
-17.996197 640.37085 -737.49921 0
-22.495268 640.37085 -737.49921 0
-26.994337 640.37085 -737.49921 0
-31.61614 636.16345 -740.37335 0
-36.13266 636.16345 -740.37335 0
-40.649261 636.16345 -740.37335 0
-45.306133 632.79749 -742.67267 0
-49.836765 632.79749 -742.67267 0
-54.367397 632.79749 -742.67267 0
-58.897942 632.79749 -742.67267 0
-63.674042 628.59009 -745.54675 0
-68.222206 628.59009 -745.54675 0
-72.770363 628.59009 -745.54675 0
-77.020462 632.79749 -742.67267 0
-81.55101 632.79749 -742.67267 0
-86.414772 628.59009 -745.54675 0
-90.962936 628.59009 -745.54675 0
-95.511101 628.59009 -745.54675 0
-99.673531 632.79749 -742.67267 0
-104.20408 632.79749 -742.67267 0
-109.15551 628.59009 -745.54675 0
-113.70367 628.59009 -745.54675 0
-118.7077 624.38257 -748.4209 0
-122.8 628.59009 -745.54675 0
-127.34808 628.59009 -745.54675 0
-131.89624 628.59009 -745.54675 0
-136.44441 628.59009 -745.54675 0
-142.07964 620.17517 -751.29504 0
-147.22392 615.96777 -754.16907 0
-151.82462 615.96777 -754.16907 0
-156.42537 615.96777 -754.16907 0
-161.6398 611.76025 -757.04327 0
-166.88931 607.55286 -759.91736 0
-170.8764 611.76025 -757.04327 0
-175.49461 611.76025 -757.04327 0
-180.1129 611.76025 -757.04327 0
-184.02988 615.96777 -754.16907 0
-188.63065 615.96777 -754.16907 0
-193.9678 611.76025 -757.04327 0
-235.83031 403.91272 -899.02478 0
-241.31477 403.91272 -899.02478 0
-246.79921 403.91272 -899.02478 0
-253.57411 397.18079 -903.62341 0
-259.08661 397.18079 -903.62341 0
-264.599 397.18079 -903.62341 0
-267.53412 409.80322 -895.00098 0
-272.99402 409.80322 -895.00098 0
-278.45392 409.80322 -895.00098 0
-283.91382 409.80322 -895.00098 0
-289.3736 409.80322 -895.00098 0
-292.18246 421.58398 -886.95349 0
-293.73593 438.41382 -875.45703 0
-297.702 444.3042 -871.43323 0
-300.41971 455.24353 -863.96051 0
-295.31741 498.15942 -834.64453 0
-297.71951 509.09875 -827.17181 0
-302.76562 509.09875 -827.17181 0
-306.52829 514.14771 -823.72278 0
-288.72495 602.50391 -763.36633 0
-293.38174 602.50391 -763.36633 0
-298.0386 602.50391 -763.36633 0
-302.69547 602.50391 -763.36633 0
-307.35236 602.50391 -763.36633 0
-312.00922 602.50391 -763.36633 0
-316.66602 602.50391 -763.36633 0
-321.32288 602.50391 -763.36633 0
-736.35101 53.012207 -1138.7264 0
-743.29767 53.012207 -1138.7264 0
-746.07837 62.268555 -1132.4033 0
-752.98657 62.268555 -1132.4033 0
-759.89471 62.268555 -1132.4033 0
716.81183 621.09534 -745.27063 4.4841551e-44
712.24615 621.09534 -745.27063 7.342804e-43
707.68042 621.09534 -745.27063 1.4545478e-42
705.81482 616.87524 -748.13257 1.4545478e-42
701.23163 616.87524 -748.13257 1.4012985e-44
687.48199 616.87524 -748.13257 1.4012985e-44
541.31714 702.12054 -690.3197 5.0530823e-42
537.08813 702.12054 -690.3197 4.6929486e-42
534.6264 698.74451 -692.60938 5.760738e-42
532.13666 695.36853 -694.89899 5.0404706e-42
531.79303 687.77234 -700.05066 0
529.22968 684.39624 -702.34027 0
524.92694 684.39624 -702.34027 0
520.62433 684.39624 -702.34027 0
516.32159 684.39624 -702.34027 3.2412033e-42
514.10541 680.17627 -705.20227 3.6013371e-42
513.50928 672.58008 -710.35388 1.4349296e-42
509.1575 672.58008 -710.35388 0
504.80576 672.58008 -710.35388 0
500.45395 672.58008 -710.35388 0
496.10214 672.58008 -710.35388 1.2611686e-44
491.7504 672.58008 -710.35388 0
488.9696 669.2041 -712.64349 0
483.04688 672.58008 -710.35388 0
478.6951 672.58008 -710.35388 0
474.34329 672.58008 -710.35388 0
469.99152 672.58008 -710.35388 0
465.63977 672.58008 -710.35388 0
462.77481 669.2041 -712.64349 0
458.40903 669.2041 -712.64349 0
454.04321 669.2041 -712.64349 0
449.67743 669.2041 -712.64349 0
445.31161 669.2041 -712.64349 0
440.94583 669.2041 -712.64349 0
436.58002 669.2041 -712.64349 0
432.2142 669.2041 -712.64349 0
427.84842 669.2041 -712.64349 0
425.18335 664.98401 -715.50555 0
419.11682 669.2041 -712.64349 0
414.75101 669.2041 -712.64349 0
409.06668 672.58008 -710.35388 0
404.71494 672.58008 -710.35388 0
401.65363 669.2041 -712.64349 0
397.28781 669.2041 -712.64349 0
392.92203 669.2041 -712.64349 0
390.11667 664.98401 -715.50555 0
385.73334 664.98401 -715.50555 0
381.35001 664.98401 -715.50555 0
376.96667 664.98401 -715.50555 0
371.09302 669.2041 -712.64349 0
366.7272 669.2041 -712.64349 0
362.36142 669.2041 -712.64349 0
359.43335 664.98401 -715.50555 0
355.05002 664.98401 -715.50555 0
350.66669 664.98401 -715.50555 0
346.28336 664.98401 -715.50555 0
341.90002 664.98401 -715.50555 0
337.51669 664.98401 -715.50555 0
334.46588 660.76392 -718.36755 0
330.065 660.76392 -718.36755 0
325.66415 660.76392 -718.36755 0
321.26328 660.76392 -718.36755 0
316.86243 660.76392 -718.36755 0
312.46155 660.76392 -718.36755 0
308.06067 660.76392 -718.36755 0
303.65982 660.76392 -718.36755 0
300.21277 657.38782 -720.65723 0
295.79785 657.38782 -720.65723 0
290.45721 660.76392 -718.36755 0
286.05634 660.76392 -718.36755 0
281.65546 660.76392 -718.36755 0
277.25461 660.76392 -718.36755 0
272.85373 660.76392 -718.36755 0
269.3085 657.38782 -720.65723 0
264.89362 657.38782 -720.65723 0
260.4787 657.38782 -720.65723 0
256.06384 657.38782 -720.65723 0
252.64832 653.16785 -723.51917 0
248.21591 653.16785 -723.51917 0
243.78348 653.16785 -723.51917 0
239.35103 653.16785 -723.51917 0
233.98936 657.38782 -720.65723 0
229.57445 657.38782 -720.65723 0
225.15958 657.38782 -720.65723 0
220.74467 657.38782 -720.65723 0
217.1889 653.16785 -723.51917 0
212.7565 653.16785 -723.51917 0
208.98331 649.79175 -725.80884 0
204.53687 649.79175 -725.80884 0
199.45921 653.16785 -723.51917 0
195.02676 653.16785 -723.51917 0
190.59436 653.16785 -723.51917 0
186.16193 653.16785 -723.51917 0
181.72951 653.16785 -723.51917 0
177.85814 649.79175 -725.80884 0
173.41168 649.79175 -725.80884 0
169.63152 645.57166 -728.67084 0
165.1675 645.57166 -728.67084 0
160.07234 649.79175 -725.80884 0
155.62587 649.79175 -725.80884 0
151.17941 649.79175 -725.80884 0
146.73299 649.79175 -725.80884 0
142.28651 649.79175 -725.80884 0
137.84007 649.79175 -725.80884 0
133.3936 649.79175 -725.80884 0
128.94713 649.79175 -725.80884 0
124.5007 649.79175 -725.80884 0
120.52764 645.57166 -728.67084 0
116.06367 645.57166 -728.67084 0
111.59967 645.57166 -728.67084 0
107.13567 645.57166 -728.67084 0
102.6717 645.57166 -728.67084 0
98.207703 645.57166 -728.67084 0
93.743744 645.57166 -728.67084 0
88.92907 649.79175 -725.80884 0
84.482597 649.79175 -725.80884 0
80.351768 645.57166 -728.67084 0
76.185837 641.35168 -731.53284 0
71.984879 637.13159 -734.39484 0
67.485802 637.13159 -734.39484 0
62.741264 641.35168 -731.53284 0
58.259773 641.35168 -731.53284 0
53.988632 637.13159 -734.39484 0
49.682472 632.9115 -737.2569 0
45.165867 632.9115 -737.2569 0
40.491463 637.13159 -734.39484 0
35.852169 641.35168 -731.53284 0
31.370632 641.35168 -731.53284 0
26.889137 641.35168 -731.53284 0
22.319935 645.57166 -728.67084 0
17.85593 645.57166 -728.67084 0
13.444569 641.35168 -731.53284 0
8.9630318 641.35168 -731.53284 0
4.4815373 641.35168 -731.53284 0
0 632.9115 -737.2569 0
-4.5306311 629.53552 -739.54651 0
-9.0963287 625.31543 -742.40857 0
-13.591805 629.53552 -739.54651 0
-18.122437 629.53552 -739.54651 0
-22.582933 632.9115 -737.2569 0
-27.099537 632.9115 -737.2569 0
-31.714329 629.53552 -739.54651 0
-36.244873 629.53552 -739.54651 0
-40.933308 625.31543 -742.40857 0
-45.481468 625.31543 -742.40857 0
-50.029629 625.31543 -742.40857 0
-54.577797 625.31543 -742.40857 0
-59.353806 621.09534 -745.27063 0
-63.919506 621.09534 -745.27063 0
-68.485199 621.09534 -745.27063 0
-73.050896 621.09534 -745.27063 0
-77.616592 621.09534 -745.27063 0
-82.182213 621.09534 -745.27063 0
-86.74791 621.09534 -745.27063 0
-91.313606 621.09534 -745.27063 0
-95.879295 621.09534 -745.27063 0
-100.44499 621.09534 -745.27063 0
-105.01061 621.09534 -745.27063 0
-109.57631 621.09534 -745.27063 0
-114.14201 621.09534 -745.27063 0
-119.16357 616.87524 -748.13257 0
-123.27339 621.09534 -745.27063 0
-127.83901 621.09534 -745.27063 0
-132.91318 616.87524 -748.13257 0
-163.06001 411.78015 -887.22681 0
-168.49536 411.78015 -887.22681 0
-173.93071 411.78015 -887.22681 0
-179.36597 411.78015 -887.22681 0
-183.96672 417.68823 -883.22009 0
-162.98987 599.151 -760.15308 0
-167.64674 599.151 -760.15308 0
-171.52513 604.21509 -756.71863 0
-176.16089 604.21509 -756.71863 0
-180.79671 604.21509 -756.71863 0
-184.7312 608.43518 -753.85669 0
-189.34952 608.43518 -753.85669 0
-230.34598 399.96399 -895.2406 0
-235.83031 399.96399 -895.2406 0
-241.31477 399.96399 -895.2406 0
-246.79921 399.96399 -895.2406 0
-252.28365 399.96399 -895.2406 0
-257.7681 399.96399 -895.2406 0
-263.25244 399.96399 -895.2406 0
-267.53412 405.87207 -891.2337 0
-271.76666 411.78015 -887.22681 0
-277.20203 411.78015 -887.22681 0
-282.63739 411.78015 -887.22681 0
-288.07263 411.78015 -887.22681 0
-292.18246 417.68823 -883.22009 0
-293.73593 434.56848 -871.77197 0
-297.702 440.47656 -867.76508 0
-300.41971 451.44885 -860.32385 0
-297.75806 484.36523 -838.00012 0
-298.96085 500.40149 -827.12439 0
-302.76562 505.46558 -823.69 0
-284.06808 599.151 -760.15308 0
-288.72495 599.151 -760.15308 0
-294.48636 594.93091 -763.01508 0
-299.16074 594.93091 -763.01508 0
-303.83514 594.93091 -763.01508 0
-308.50955 594.93091 -763.01508 0
-314.35867 590.71094 -765.87714 0
-320.24283 586.49084 -768.73914 0
-732.48651 8.342041 -1160.8362 0
-735.22174 18.470215 -1153.9673 0
-738.24103 27.754395 -1147.6709 0
-736.35101 48.01062 -1133.9332 0
-743.29767 48.01062 -1133.9332 0
-750.24432 48.01062 -1133.9332 0
716.81183 617.80811 -742.1203 4.7644148e-44
712.24615 617.80811 -742.1203 1.4545478e-42
710.39807 613.57532 -744.97021 1.4012985e-44
705.81482 613.57532 -744.97021 7.0064923e-45
701.23163 613.57532 -744.97021 1.4012985e-45
540.65088 692.30334 -691.96155 5.760738e-42
536.3938 692.30334 -691.96155 4.6817382e-42
534.32837 688.07068 -694.81152 4.3202032e-42
533.53235 681.29834 -699.37146 3.6139487e-42
531.38629 677.06567 -702.22131 4.2038954e-45
527.06604 677.06567 -702.22131 0
520.62433 681.29834 -699.37146 1.8062737e-42
516.32159 681.29834 -699.37146 2.5265411e-42
514.10541 677.06567 -702.22131 3.9656747e-42
511.44034 673.67944 -704.50128 3.2412033e-42
507.10611 673.67944 -704.50128 0
504.80576 669.4469 -707.3512 0
500.45395 669.4469 -707.3512 0
496.10214 669.4469 -707.3512 0
491.7504 669.4469 -707.3512 0
487.39865 669.4469 -707.3512 0
483.04688 669.4469 -707.3512 0
478.6951 669.4469 -707.3512 0
474.34329 669.4469 -707.3512 0
469.99152 669.4469 -707.3512 0
465.63977 669.4469 -707.3512 0
462.77481 666.06067 -709.6311 0
458.40903 666.06067 -709.6311 0
454.04321 666.06067 -709.6311 0
449.67743 666.06067 -709.6311 0
445.31161 666.06067 -709.6311 0
440.94583 666.06067 -709.6311 0
436.58002 666.06067 -709.6311 0
433.95001 661.828 -712.48108 0
429.56668 661.828 -712.48108 0
425.18335 661.828 -712.48108 0
419.11682 666.06067 -709.6311 0
414.75101 666.06067 -709.6311 0
409.06668 669.4469 -707.3512 0
404.71494 669.4469 -707.3512 0
401.65363 666.06067 -709.6311 0
397.28781 666.06067 -709.6311 0
392.92203 666.06067 -709.6311 0
390.11667 661.828 -712.48108 0
385.73334 661.828 -712.48108 0
381.35001 661.828 -712.48108 0
376.96667 661.828 -712.48108 0
372.58334 661.828 -712.48108 0
368.20001 661.828 -712.48108 0
363.81668 661.828 -712.48108 0
359.43335 661.828 -712.48108 0
356.47021 657.59534 -715.33093 0
352.06934 657.59534 -715.33093 0
347.66849 657.59534 -715.33093 0
343.26761 657.59534 -715.33093 0
338.86676 657.59534 -715.33093 0
334.46588 657.59534 -715.33093 0
330.065 657.59534 -715.33093 0
325.66415 657.59534 -715.33093 0
321.26328 657.59534 -715.33093 0
316.86243 657.59534 -715.33093 0
313.45746 654.20911 -717.6109 0
309.04254 654.20911 -717.6109 0
304.62762 654.20911 -717.6109 0
300.21277 654.20911 -717.6109 0
295.79785 654.20911 -717.6109 0
290.45721 657.59534 -715.33093 0
286.05634 657.59534 -715.33093 0
281.65546 657.59534 -715.33093 0
277.25461 657.59534 -715.33093 0
273.72339 654.20911 -717.6109 0
269.3085 654.20911 -717.6109 0
264.89362 654.20911 -717.6109 0
260.4787 654.20911 -717.6109 0
257.08075 649.97644 -720.46082 0
252.64832 649.97644 -720.46082 0
249.0014 646.59033 -722.74078 0
244.55495 646.59033 -722.74078 0
239.35103 649.97644 -720.46082 0
234.91862 649.97644 -720.46082 0
230.48619 649.97644 -720.46082 0
226.05379 649.97644 -720.46082 0
221.62134 649.97644 -720.46082 0
217.87621 646.59033 -722.74078 0
213.42978 646.59033 -722.74078 0
209.80737 642.35767 -725.5907 0
205.3434 642.35767 -725.5907 0
200.87941 642.35767 -725.5907 0
195.64394 646.59033 -722.74078 0
191.19751 646.59033 -722.74078 0
186.75104 646.59033 -722.74078 0
182.30461 646.59033 -722.74078 0
177.85814 646.59033 -722.74078 0
174.09547 642.35767 -725.5907 0
170.29778 638.12488 -728.44061 0
165.81624 638.12488 -728.44061 0
160.70354 642.35767 -725.5907 0
156.23953 642.35767 -725.5907 0
151.77554 642.35767 -725.5907 0
147.31158 642.35767 -725.5907 0
142.84758 642.35767 -725.5907 0
138.38361 642.35767 -725.5907 0
133.9196 642.35767 -725.5907 0
129.4556 642.35767 -725.5907 0
124.99164 642.35767 -725.5907 0
121.00104 638.12488 -728.44061 0
116.51955 638.12488 -728.44061 0
112.038 638.12488 -728.44061 0
107.97726 633.89221 -731.29053 0
103.47823 633.89221 -731.29053 0
98.979172 633.89221 -731.29053 0
94.480141 633.89221 -731.29053 0
89.630402 638.12488 -728.44061 0
85.148865 638.12488 -728.44061 0
80.982971 633.89221 -731.29053 0
76.781975 629.65955 -734.14044 0
72.265411 629.65955 -734.14044 0
67.748802 629.65955 -734.14044 0
63.232197 629.65955 -734.14044 0
58.715637 629.65955 -734.14044 0
54.367355 626.27344 -736.42041 0
49.836765 626.27344 -736.42041 0
45.165867 629.65955 -734.14044 0
40.649261 629.65955 -734.14044 0
35.992439 633.89221 -731.29053 0
31.493364 633.89221 -731.29053 0
26.889137 638.12488 -728.44061 0
22.319935 642.35767 -725.5907 0
17.85593 642.35767 -725.5907 0
13.444569 638.12488 -728.44061 0
8.9630318 638.12488 -728.44061 0
4.4990706 633.89221 -731.29053 0
0 626.27344 -736.42041 0
-4.5481644 622.04077 -739.27032 0
-9.1313953 617.80811 -742.1203 0
-13.644405 622.04077 -739.27032 0
-18.122437 626.27344 -736.42041 0
-22.653067 626.27344 -736.42041 0
-27.183699 626.27344 -736.42041 0
-31.714329 626.27344 -736.42041 0
-36.385139 622.04077 -739.27032 0
-41.248905 613.57532 -744.97021 0
-45.832134 613.57532 -744.97021 0
-50.415363 613.57532 -744.97021 0
-55.208996 609.34265 -747.82007 0
-59.809673 609.34265 -747.82007 0
-75.750999 413.79248 -879.48663 0
-80.793602 419.71826 -875.4967 0
-86.179863 419.71826 -875.4967 0
-77.914658 613.57532 -744.97021 0
-82.49781 613.57532 -744.97021 0
-87.081039 613.57532 -744.97021 0
-91.664268 613.57532 -744.97021 0
-113.62654 413.79248 -879.48663 0
-119.57738 407.8667 -883.47644 0
-125.01263 407.8667 -883.47644 0
-130.44798 407.8667 -883.47644 0
-115.01867 609.34265 -747.82007 0
-119.16357 613.57532 -744.97021 0
-123.7468 613.57532 -744.97021 0
-129.3118 605.10999 -750.67004 0
-157.62465 407.8667 -883.47644 0
-163.06001 407.8667 -883.47644 0
-168.49536 407.8667 -883.47644 0
-173.93071 407.8667 -883.47644 0
-179.36597 407.8667 -883.47644 0
-183.96672 413.79248 -879.48663 0
-189.37753 413.79248 -879.48663 0
-195.67203 407.8667 -883.47644 0
-201.10738 407.8667 -883.47644 0
-206.54263 407.8667 -883.47644 0
-211.978 407.8667 -883.47644 0
-218.3952 401.94104 -887.46637 0
-223.85512 401.94104 -887.46637 0
-229.31502 401.94104 -887.46637 0
-233.71931 407.8667 -883.47644 0
-239.15466 407.8667 -883.47644 0
-245.69461 401.94104 -887.46637 0
-250.02536 407.8667 -883.47644 0
-255.46071 407.8667 -883.47644 0
-260.89597 407.8667 -883.47644 0
-266.33133 407.8667 -883.47644 0
-271.76666 407.8667 -883.47644 0
-277.20203 407.8667 -883.47644 0
-282.63739 407.8667 -883.47644 0
-286.77167 413.79248 -879.48663 0
-290.85696 419.71826 -875.4967 0
-294.89316 425.64404 -871.50677 0
-299.07663 430.72327 -868.08691 0
-300.41971 447.65405 -856.68719 0
-297.75806 480.66895 -834.45782 0
-300.40912 490.82739 -827.61804 0
-304.02802 496.75317 -823.62805 0
-284.06808 595.7981 -756.93988 0
-288.72495 595.7981 -756.93988 0
-295.59094 587.33276 -762.63971 0
-300.28287 587.33276 -762.63971 0
-304.97482 587.33276 -762.63971 0
-310.82394 583.09998 -765.48962 0
-315.53342 583.09998 -765.48962 0
-321.67352 578.02075 -768.90955 0
-728.15228 13.380127 -1149.0894 0
-731.21014 22.692139 -1142.8196 0
-738.24103 22.692139 -1142.8196 0
-736.35101 43.009033 -1129.1399 0
-743.29767 43.009033 -1129.1399 0
719.56451 610.27539 -741.80774 2.5461593e-42
714.98132 610.27539 -741.80774 1.4545478e-42
710.39807 610.27539 -741.80774 9.8090893e-45
708.51495 606.03015 -744.64557 0
703.91425 606.03015 -744.64557 0
699.31354 606.03015 -744.64557 0
703.18494 592.44507 -753.72662 0
542.1377 678.20044 -696.40259 5.7481263e-42
537.83502 678.20044 -696.40259 4.6677252e-42
535.70648 673.95508 -699.24036 1.5414283e-44
531.38629 673.95508 -699.24036 2.8025969e-45
527.06604 673.95508 -699.24036 0
524.44305 670.55884 -701.51062 0
520.10883 670.55884 -701.51062 2.5153307e-42
515.77454 670.55884 -701.51062 1.8834713e-40
511.44034 670.55884 -701.51062 4.3370187e-42
507.10611 670.55884 -701.51062 1.4012985e-44
502.77188 670.55884 -701.51062 0
500.45395 666.3136 -704.34845 0
496.10214 666.3136 -704.34845 0
491.7504 666.3136 -704.34845 0
487.39865 666.3136 -704.34845 0
483.04688 666.3136 -704.34845 0
478.6951 666.3136 -704.34845 0
474.34329 666.3136 -704.34845 0
469.99152 666.3136 -704.34845 0
467.14062 662.91736 -706.61871 0
462.77481 662.91736 -706.61871 0
458.40903 662.91736 -706.61871 0
454.04321 662.91736 -706.61871 0
449.67743 662.91736 -706.61871 0
445.31161 662.91736 -706.61871 0
440.94583 662.91736 -706.61871 0
436.58002 662.91736 -706.61871 0
433.95001 658.672 -709.45654 0
429.56668 658.672 -709.45654 0
425.18335 658.672 -709.45654 0
420.80002 658.672 -709.45654 0
414.75101 662.91736 -706.61871 0
410.38522 662.91736 -706.61871 0
406.01941 662.91736 -706.61871 0
403.26669 658.672 -709.45654 0
398.88336 658.672 -709.45654 0
394.5 658.672 -709.45654 0
391.67715 654.42664 -712.29437 0
387.27628 654.42664 -712.29437 0
382.87543 654.42664 -712.29437 0
378.47455 654.42664 -712.29437 0
374.07367 654.42664 -712.29437 0
369.67282 654.42664 -712.29437 0
365.27194 654.42664 -712.29437 0
360.87109 654.42664 -712.29437 0
356.47021 654.42664 -712.29437 0
352.06934 654.42664 -712.29437 0
347.66849 654.42664 -712.29437 0
344.36169 651.0304 -714.56464 0
339.94678 651.0304 -714.56464 0
335.53192 651.0304 -714.56464 0
331.117 651.0304 -714.56464 0
326.70212 651.0304 -714.56464 0
321.26328 654.42664 -712.29437 0
316.86243 654.42664 -712.29437 0
314.70233 646.78516 -717.40247 0
310.26987 646.78516 -717.40247 0
305.83743 646.78516 -717.40247 0
301.40503 646.78516 -717.40247 0
296.9726 646.78516 -717.40247 0
291.383 651.0304 -714.56464 0
286.96808 651.0304 -714.56464 0
282.55316 651.0304 -714.56464 0
278.13831 651.0304 -714.56464 0
274.81046 646.78516 -717.40247 0
270.37805 646.78516 -717.40247 0
265.94562 646.78516 -717.40247 0
261.51318 646.78516 -717.40247 0
257.89432 643.38892 -719.67273 0
253.44783 643.38892 -719.67273 0
249.0014 643.38892 -719.67273 0
245.51927 639.14355 -722.51056 0
241.05528 639.14355 -722.51056 0
236.59131 639.14355 -722.51056 0
232.1273 639.14355 -722.51056 0
227.66335 639.14355 -722.51056 0
223.19934 639.14355 -722.51056 0
219.59448 634.89819 -725.34839 0
215.11298 634.89819 -725.34839 0
210.63144 634.89819 -725.34839 0
206.14993 634.89819 -725.34839 0
201.66841 634.89819 -725.34839 0
197.18687 634.89819 -725.34839 0
191.95145 639.14355 -722.51056 0
187.48743 639.14355 -722.51056 0
183.02347 639.14355 -722.51056 0
179.2608 634.89819 -725.34839 0
175.46307 630.65295 -728.18616 0
171.63031 626.40771 -731.02405 0
167.11369 626.40771 -731.02405 0
161.96594 630.65295 -728.18616 0
157.46687 630.65295 -728.18616 0
152.9678 630.65295 -728.18616 0
148.46878 630.65295 -728.18616 0
143.9697 630.65295 -728.18616 0
139.47067 630.65295 -728.18616 0
134.9716 630.65295 -728.18616 0
129.96407 634.89819 -725.34839 0
125.48257 634.89819 -725.34839 0
121.47444 630.65295 -728.18616 0
116.97541 630.65295 -728.18616 0
112.91467 626.40771 -731.02405 0
108.39806 626.40771 -731.02405 0
103.47823 630.65295 -728.18616 0
98.979172 630.65295 -728.18616 0
94.480141 630.65295 -728.18616 0
89.981071 630.65295 -728.18616 0
85.815132 626.40771 -731.02405 0
81.298569 626.40771 -731.02405 0
77.020416 623.01135 -733.29431 0
72.48983 623.01135 -733.29431 0
67.959206 623.01135 -733.29431 0
75.750999 409.89673 -875.75317 0
59.125916 618.76611 -736.13208 0
54.577755 618.76611 -736.13208 0
59.248661 415.84021 -871.78021 0
53.862404 415.84021 -871.78021 0
48.255219 421.78357 -867.80719 0
42.893559 421.78357 -867.80719 0
37.531845 421.78357 -867.80719 0
32.464741 409.89673 -875.75317 0
27.053934 409.89673 -875.75317 0
21.643126 409.89673 -875.75317 0
16.23237 409.89673 -875.75317 0
10.821563 409.89673 -875.75317 0
5.4108071 409.89673 -875.75317 0
0 409.89673 -875.75317 0
-5.4108071 409.89673 -875.75317 0
-10.821614 409.89673 -875.75317 0
-13.644405 618.76611 -736.13208 0
-18.122437 623.01135 -733.29431 0
-22.653067 623.01135 -733.29431 0
-27.183699 623.01135 -733.29431 0
-31.714329 623.01135 -733.29431 0
-43.286251 409.89673 -875.75317 0
-48.697063 409.89673 -875.75317 0
-54.107868 409.89673 -875.75317 0
-59.518673 409.89673 -875.75317 0
-64.929482 409.89673 -875.75317 0
-70.340187 409.89673 -875.75317 0
-75.750999 409.89673 -875.75317 0
-80.793602 415.84021 -871.78021 0
-86.179863 415.84021 -871.78021 0
-91.566124 415.84021 -871.78021 0
-96.952286 415.84021 -871.78021 0
-102.80493 409.89673 -875.75317 0
-108.21574 409.89673 -875.75317 0
-113.62654 409.89673 -875.75317 0
-119.03735 409.89673 -875.75317 0
-125.01263 403.95325 -879.72607 0
-130.44798 403.95325 -879.72607 0
-135.88333 403.95325 -879.72607 0
-141.3187 403.95325 -879.72607 0
-146.75404 403.95325 -879.72607 0
-152.1893 403.95325 -879.72607 0
-157.62465 403.95325 -879.72607 0
-163.06001 403.95325 -879.72607 0
-168.49536 403.95325 -879.72607 0
-173.93071 403.95325 -879.72607 0
-179.36597 403.95325 -879.72607 0
-183.96672 409.89673 -875.75317 0
-189.37753 409.89673 -875.75317 0
-194.78836 409.89673 -875.75317 0
-199.29092 415.84021 -871.78021 0
-204.67709 415.84021 -871.78021 0
-211.02066 409.89673 -875.75317 0
-217.41335 403.95325 -879.72607 0
-222.84869 403.95325 -879.72607 0
-227.25308 409.89673 -875.75317 0
-232.6638 409.89673 -875.75317 0
-238.0746 409.89673 -875.75317 0
-244.59001 403.95325 -879.72607 0
-250.02536 403.95325 -879.72607 0
-255.46071 403.95325 -879.72607 0
-260.89597 403.95325 -879.72607 0
-266.33133 403.95325 -879.72607 0
-271.76666 403.95325 -879.72607 0
-277.20203 403.95325 -879.72607 0
-282.63739 403.95325 -879.72607 0
-286.77167 409.89673 -875.75317 0
-290.85696 415.84021 -871.78021 0
-294.89316 421.78357 -867.80719 0
-299.07663 426.87793 -864.40186 0
-300.41971 443.85925 -853.05054 0
-297.75806 476.97266 -830.91553 0
-301.65045 482.06702 -827.51007 0
-302.76562 498.19922 -816.72644 0
-285.1376 588.19983 -756.56445 0
-289.81201 588.19983 -756.56445 0
-296.69556 579.70923 -762.24011 0
-302.75156 574.61487 -765.64551 0
-307.48209 574.61487 -765.64551 0
-312.21259 574.61487 -765.64551 0
-316.94308 574.61487 -765.64551 0
-322.86578 570.36951 -768.48334 0
-721.08295 8.2901611 -1144.2115 0
-728.15228 8.2901611 -1144.2115 0
-731.21014 17.629883 -1137.9683 0
-738.24103 17.629883 -1137.9683 0
-745.27191 17.629883 -1137.9683 0
719.56451 606.97546 -738.64532 4.7644148e-44
714.98132 606.97546 -738.64532 1.5414283e-44
710.39807 606.97546 -738.64532 7.0064923e-45
708.51495 602.71765 -741.47107 0
706.59686 598.45972 -744.29681 0
707.84174 589.09216 -750.51343 0
703.18494 589.09216 -750.51343 2.8025969e-45
701.15802 584.83423 -753.33911 1.4012985e-44
544.34692 670.84448 -696.2594 0
540.02667 670.84448 -696.2594 0
535.70648 670.84448 -696.2594 0
533.11151 667.43823 -698.52002 0
528.77728 667.43823 -698.52002 0
524.44305 667.43823 -698.52002 0
520.10883 667.43823 -698.52002 0
515.77454 667.43823 -698.52002 0
511.44034 667.43823 -698.52002 3.2384008e-42
507.10611 667.43823 -698.52002 0
502.77188 667.43823 -698.52002 0
500.45395 663.1803 -701.3457 0
496.10214 663.1803 -701.3457 0
493.33542 659.77393 -703.60632 0
488.9696 659.77393 -703.60632 0
484.60382 659.77393 -703.60632 0
480.23801 659.77393 -703.60632 0
475.87222 659.77393 -703.60632 0
471.50641 659.77393 -703.60632 0
467.14062 659.77393 -703.60632 0
462.77481 659.77393 -703.60632 0
458.40903 659.77393 -703.60632 0
454.04321 659.77393 -703.60632 0
449.67743 659.77393 -703.60632 0
447.10001 655.51599 -706.43207 0
440.94583 659.77393 -703.60632 0
436.58002 659.77393 -703.60632 0
433.95001 655.51599 -706.43207 0
429.56668 655.51599 -706.43207 0
425.18335 655.51599 -706.43207 0
422.48322 651.25806 -709.25775 0
416.41669 655.51599 -706.43207 0
412.03336 655.51599 -706.43207 0
407.65002 655.51599 -706.43207 0
403.26669 655.51599 -706.43207 0
398.88336 655.51599 -706.43207 0
396.078 651.25806 -709.25775 0
391.67715 651.25806 -709.25775 0
387.27628 651.25806 -709.25775 0
382.87543 651.25806 -709.25775 0
378.47455 651.25806 -709.25775 0
374.07367 651.25806 -709.25775 0
369.67282 651.25806 -709.25775 0
365.27194 651.25806 -709.25775 0
362.02127 647.85168 -711.51837 0
357.60638 647.85168 -711.51837 0
353.19147 647.85168 -711.51837 0
348.77658 647.85168 -711.51837 0
344.36169 647.85168 -711.51837 0
341.29684 643.59375 -714.34406 0
335.53192 647.85168 -711.51837 0
331.117 647.85168 -711.51837 0
326.70212 647.85168 -711.51837 0
322.28723 647.85168 -711.51837 0
317.87231 647.85168 -711.51837 0
314.70233 643.59375 -714.34406 0
311.25174 640.1875 -716.60468 0
306.80527 640.1875 -716.60468 0
302.35886 640.1875 -716.60468 0
297.91238 640.1875 -716.60468 0
293.46597 640.1875 -716.60468 0
289.01947 640.1875 -716.60468 0
284.57303 640.1875 -716.60468 0
280.12659 640.1875 -716.60468 0
276.76718 635.92944 -719.43042 0
272.30319 635.92944 -719.43042 0
267.8392 635.92944 -719.43042 0
263.37521 635.92944 -719.43042 0
258.91125 635.92944 -719.43042 0
254.44724 635.92944 -719.43042 0
249.98328 635.92944 -719.43042 0
245.51927 635.92944 -719.43042 0
242.00208 631.67151 -722.2561 0
238.44984 627.41357 -725.08185 0
233.95078 627.41357 -725.08185 0
229.45174 627.41357 -725.08185 0
224.95267 627.41357 -725.08185 0
220.45361 627.41357 -725.08185 0
215.95457 627.41357 -725.08185 0
211.45551 627.41357 -725.08185 0
206.95647 627.41357 -725.08185 0
203.24641 623.15576 -727.90759 0
198.72981 623.15576 -727.90759 0
193.45932 627.41357 -725.08185 0
188.22383 631.67151 -722.2561 0
183.74234 631.67151 -722.2561 0
179.96214 627.41357 -725.08185 0
176.14688 623.15576 -727.90759 0
171.63031 623.15576 -727.90759 0
167.11369 623.15576 -727.90759 0
163.10211 619.74939 -730.16815 0
158.08054 623.15576 -727.90759 0
153.56395 623.15576 -727.90759 0
149.04738 623.15576 -727.90759 0
144.53076 623.15576 -727.90759 0
140.01421 623.15576 -727.90759 0
135.4976 623.15576 -727.90759 0
130.981 623.15576 -727.90759 0
126.85719 619.74939 -730.16815 0
122.32655 619.74939 -730.16815 0
118.25183 615.49146 -732.9939 0
113.26534 619.74939 -730.16815 0
108.39806 623.15576 -727.90759 0
103.47823 627.41357 -725.08185 0
98.979172 627.41357 -725.08185 0
94.480141 627.41357 -725.08185 0
89.981071 627.41357 -725.08185 0
101.00601 428.99377 -856.76074 0
96.131775 423.03271 -860.7168 0
91.148781 417.92322 -864.10767 0
85.787117 417.92322 -864.10767 0
80.793602 411.96216 -868.06372 0
75.750999 406.00098 -872.01978 0
70.021133 411.96216 -868.06372 0
64.634872 411.96216 -868.06372 0
59.248661 411.96216 -868.06372 0
53.862404 411.96216 -868.06372 0
48.255219 417.92322 -864.10767 0
42.893559 417.92322 -864.10767 0
37.531845 417.92322 -864.10767 0
32.170181 417.92322 -864.10767 0
26.808468 417.92322 -864.10767 0
21.544941 411.96216 -868.06372 0
16.158731 411.96216 -868.06372 0
10.77247 411.96216 -868.06372 0
5.4108071 406.00098 -872.01978 0
0 406.00098 -872.01978 0
-5.4108071 406.00098 -872.01978 0
-10.821614 406.00098 -872.01978 0
-16.085039 417.92322 -864.10767 0
-21.362593 423.03271 -860.7168 0
-26.703268 423.03271 -860.7168 0
-32.043941 423.03271 -860.7168 0
-48.476143 411.96216 -868.06372 0
-53.862404 411.96216 -868.06372 0
-59.248661 411.96216 -868.06372 0
-64.634926 411.96216 -868.06372 0
-70.02108 411.96216 -868.06372 0
-75.06369 417.92322 -864.10767 0
-80.4254 417.92322 -864.10767 0
-85.787117 417.92322 -864.10767 0
-91.148834 417.92322 -864.10767 0
-96.952286 411.96216 -868.06372 0
-102.33855 411.96216 -868.06372 0
-107.72481 411.96216 -868.06372 0
-113.11106 411.96216 -868.06372 0
-118.49732 411.96216 -868.06372 0
-124.44806 406.00098 -872.01978 0
-130.44798 400.03979 -875.97571 0
-135.88333 400.03979 -875.97571 0
-140.68048 406.00098 -872.01978 0
-146.09128 406.00098 -872.01978 0
-151.502 406.00098 -872.01978 0
-156.9128 406.00098 -872.01978 0
-162.32361 406.00098 -872.01978 0
-167.73442 406.00098 -872.01978 0
-173.14522 406.00098 -872.01978 0
-178.55592 406.00098 -872.01978 0
-183.96672 406.00098 -872.01978 0
-187.65927 417.92322 -864.10767 0
-193.02098 417.92322 -864.10767 0
-198.38271 417.92322 -864.10767 0
-203.74431 417.92322 -864.10767 0
-210.06335 411.96216 -868.06372 0
-216.43147 406.00098 -872.01978 0
