# .PCD v0.7 - Point Cloud Data file format
VERSION 0.7
FIELDS x y z rgb
SIZE 4 4 4 4
TYPE F F F F
COUNT 1 1 1 1
WIDTH 1004
HEIGHT 1
VIEWPOINT 0 0 0 1 0 0 0
POINTS 1004
DATA ascii
1.6196107 0.90584099 -0.0708462 7.0987132e-39
1.6196169 0.90170765 -0.0708462 7.0990663e-39
1.6196231 0.89757431 -0.0708462 7.1912619e-39
1.6196291 0.89344108 -0.0708462 7.3756504e-39
1.6196352 0.88930774 -0.0708462 7.3756504e-39
1.6087059 0.87962472 -0.060704231 7.3756532e-39
1.6087121 0.87551802 -0.060704231 7.2834576e-39
1.6087182 0.87141138 -0.060704231 7.4671272e-39
1.6087242 0.86730474 -0.060704231 7.4671272e-39
1.6087303 0.86319804 -0.060704231 7.2827387e-39
1.6087364 0.8590914 -0.060704231 6.9139562e-39
1.6087426 0.8549847 -0.060704231 7.0068707e-39
1.6087487 0.85087806 -0.060704231 6.8224794e-39
1.6087548 0.84677136 -0.060704231 6.0867094e-39
1.5969107 0.92345202 -0.05505538 7.1909088e-39
1.6070613 0.92479569 -0.064495802 7.0065175e-39
1.6070675 0.92068899 -0.064495802 6.8235556e-39
1.6070734 0.91658235 -0.064495802 6.9157512e-39
1.6070796 0.91247565 -0.064495802 7.0990663e-39
1.6070857 0.908369 -0.064495802 6.8224794e-39
1.6070918 0.90426236 -0.064495802 6.914675e-39
1.6070979 0.90015566 -0.064495802 7.0990663e-39
1.6180291 0.90170527 -0.074662447 7.0990663e-39
1.6180352 0.89757192 -0.074662447 7.1912619e-39
1.6180414 0.8934387 -0.074662447 7.3756532e-39
1.6071223 0.88372904 -0.064495802 7.3756532e-39
1.6071284 0.8796224 -0.064495802 7.4674957e-39
1.6071345 0.8755157 -0.064495802 7.3753001e-39
1.6071407 0.87140906 -0.064495802 8.0210198e-39
1.6071467 0.86730242 -0.064495802 7.3756504e-39
1.6071528 0.86319572 -0.064495802 7.0990663e-39
1.6071589 0.85908908 -0.064495802 7.0990663e-39
1.5970199 0.84997779 -0.05505538 7.0990635e-39
1.597026 0.84589589 -0.05505538 6.9146722e-39
1.5345273 0.89468122 -0.0020444393 7.0983446e-39
1.5953428 0.9234497 -0.058824182 6.914675e-39
1.5953488 0.91936779 -0.058824182 6.914675e-39
1.6054899 0.92068666 -0.068287492 7.1916123e-39
1.6054959 0.91658002 -0.068287492 7.2838079e-39
1.605502 0.91247332 -0.068287492 7.1912619e-39
1.6055082 0.90836668 -0.068287492 7.1912619e-39
1.6055143 0.90426004 -0.068287492 7.2827387e-39
1.6055204 0.90015334 -0.068287492 7.3749343e-39
1.6055264 0.8960467 -0.068287492 7.2834576e-39
1.6055325 0.89194006 -0.068287492 7.3756532e-39
1.6055387 0.88783342 -0.068287492 7.5593256e-39
1.6055448 0.88372672 -0.068287492 7.7437168e-39
1.6055509 0.87962008 -0.068287492 7.5593354e-39
1.605557 0.87551337 -0.068287492 7.0983572e-39
1.605563 0.87140673 -0.068287492 7.1912619e-39
1.6055692 0.86730009 -0.068287492 7.5600445e-39
1.5954398 0.85813928 -0.058824182 7.1912619e-39
1.5954459 0.85405737 -0.058824182 7.1912619e-39
1.595452 0.84997547 -0.058824182 7.5603948e-39
1.5954579 0.84589356 -0.058824182 7.744786e-39
1.5431417 0.90015399 -0.01516211 7.0068581e-39
1.5727452 0.91212755 -0.042890906 6.5458897e-39
1.5937809 0.91936547 -0.062592864 7.1912591e-39
1.5937868 0.91528356 -0.062592864 7.1916123e-39
1.5937929 0.91120166 -0.062592864 7.1916123e-39
1.593799 0.90711975 -0.062592864 7.4674803e-39
1.5938051 0.90303785 -0.062592864 7.6518715e-39
1.5938112 0.89895594 -0.062592864 7.5593228e-39
1.5829128 0.88919121 -0.052377105 7.4671272e-39
1.5938233 0.89079219 -0.062592864 7.5593228e-39
1.5938293 0.88671029 -0.062592864 7.5593228e-39
1.6039612 0.88783103 -0.072079062 7.6515184e-39
1.6039673 0.88372433 -0.072079062 7.743714e-39
1.6039734 0.87961769 -0.072079062 7.5589725e-39
1.5938536 0.87038267 -0.062592864 7.2823856e-39
1.6039857 0.87140435 -0.072079062 7.1912619e-39
1.5938658 0.86221886 -0.062592864 7.4678488e-39
1.5938718 0.85813695 -0.062592864 7.467846e-39
1.5938779 0.85405505 -0.062592864 7.7444329e-39
1.5938839 0.84997314 -0.062592864 7.6533191e-39
1.59389 0.84589124 -0.062592864 8.0221016e-39
1.522162 0.89353329 -0.00053012371 6.9146624e-39
1.5416213 0.90015173 -0.01881659 7.0068581e-39
1.5711969 0.91212523 -0.046612144 6.9146722e-39
1.5813189 0.91352028 -0.05612123 7.0990635e-39
1.5813248 0.90946501 -0.05612123 7.1912437e-39
1.5813309 0.90540981 -0.05612123 7.2834393e-39
1.5813369 0.90135455 -0.05612123 7.560029e-39
1.5813429 0.89729929 -0.05612123 7.6522247e-39
1.581349 0.89324415 -0.05612123 7.6515184e-39
1.5712389 0.88391197 -0.046612144 7.5593228e-39
1.5813611 0.88513362 -0.05612123 7.467846e-39
1.581367 0.88107842 -0.05612123 7.467846e-39
1.5922674 0.88262606 -0.066361547 7.5593228e-39
1.6023898 0.88372201 -0.075870633 7.4671272e-39
1.5922796 0.87446225 -0.066361547 7.3749343e-39
1.5922856 0.87038034 -0.066361547 7.3749343e-39
1.5922917 0.86629844 -0.066361547 7.46713e-39
1.5922977 0.86221653 -0.066361547 7.5593256e-39
1.5923039 0.85813463 -0.066361547 7.6525904e-39
1.5923098 0.85405272 -0.066361547 7.744786e-39
1.5923159 0.84997082 -0.066361547 8.0206695e-39
1.5814273 0.8405261 -0.05612123 8.1128651e-39
1.5206598 0.89353108 -0.0041404963 6.730281e-39
1.5401009 0.90014946 -0.022470951 6.6380854e-39
1.5595423 0.9066726 -0.040801525 7.0068679e-39
1.5696546 0.90809244 -0.050333381 7.0068679e-39
1.5696607 0.90406197 -0.050333381 7.0075615e-39
1.5696666 0.90003151 -0.050333381 7.2841484e-39
1.5797791 0.90135223 -0.059865355 7.3760035e-39
1.5797852 0.89729697 -0.059865355 7.4681991e-39
1.5696846 0.88794011 -0.050333381 8.0210198e-39
1.5696906 0.88390964 -0.050333381 7.467846e-39
1.5696965 0.87987918 -0.050333381 7.3756504e-39
1.5798093 0.8810761 -0.059865355 7.2834548e-39
1.5906994 0.88262373 -0.070130348 7.3756504e-39
1.5907055 0.87854183 -0.070130348 7.2834548e-39
1.5907116 0.87445992 -0.070130348 7.2827359e-39
1.5907177 0.87037802 -0.070130348 7.3749315e-39
1.5907236 0.86629611 -0.070130348 7.3749343e-39
1.5907297 0.86221421 -0.070130348 7.46713e-39
1.5907358 0.8581323 -0.070130348 7.3756532e-39
1.5907419 0.8540504 -0.070130348 7.4678488e-39
1.590748 0.84996849 -0.070130348 7.6515184e-39
1.590754 0.84588659 -0.070130348 8.1124966e-39
1.5191578 0.89352882 -0.0077508688 6.8221235e-39
1.5284835 0.89467221 -0.016570687 6.0845584e-39
1.5479065 0.90122008 -0.03494513 7.0990537e-39
1.5681064 0.90809017 -0.054054618 7.0990537e-39
1.5681124 0.90405971 -0.054054618 6.9156994e-39
1.5681183 0.90002924 -0.054054618 7.1922863e-39
1.5681244 0.89599878 -0.054054618 7.0994138e-39
1.5681304 0.89196831 -0.054054618 7.0072182e-39
1.5681363 0.88793784 -0.054054618 7.0079469e-39
1.5681423 0.88390738 -0.054054618 7.1923381e-39
1.5681483 0.87987691 -0.054054618 7.2838079e-39
1.5782515 0.88107377 -0.063609362 7.0994166e-39
1.5782576 0.87701851 -0.063609362 7.1912591e-39
1.5891374 0.8785395 -0.073899031 7.3756504e-39
1.5891435 0.8744576 -0.073899031 7.9284332e-39
1.5782757 0.86485279 -0.063609362 8.3894114e-39
1.5891557 0.86629379 -0.073899031 8.2961619e-39
1.5891618 0.86221188 -0.073899031 7.5585969e-39
1.5782937 0.85268712 -0.063609362 7.0065175e-39
1.5782998 0.84863186 -0.063609362 6.7299307e-39
1.5783058 0.8445766 -0.063609362 7.0075615e-39
1.5783118 0.84052145 -0.063609362 7.376344e-39
1.5682203 0.83151126 -0.054054618 7.7451209e-39
1.5075625 0.89191258 -0.0017837286 6.9146722e-39
1.5176555 0.89352661 -0.01136148 6.914675e-39
1.5269727 0.89467001 -0.020202279 7.0068707e-39
1.5463773 0.90121782 -0.038620591 7.2827359e-39
1.5564708 0.90266234 -0.048198342 7.3749315e-39
1.5564767 0.89865667 -0.048198342 7.1912437e-39
1.5665702 0.90002692 -0.057775855 7.1912437e-39
1.5665761 0.89599645 -0.057775855 6.9153757e-39
1.5665821 0.89196599 -0.057775855 6.8231801e-39
1.566588 0.88793552 -0.057775855 6.5476876e-39
1.5665941 0.88390505 -0.057775855 6.9164701e-39
1.5666001 0.87987459 -0.057775855 7.1916123e-39
1.566606 0.87584412 -0.057775855 7.0994166e-39
1.5766999 0.87701625 -0.067353487 7.283089e-39
1.5767058 0.87296104 -0.067353487 7.4674803e-39
1.5875756 0.87445521 -0.077667832 8.0199282e-39
1.5767179 0.86485052 -0.067353487 8.2965151e-39
1.5875877 0.8662914 -0.077667832 8.3880073e-39
1.5767299 0.85674006 -0.067353487 7.466051e-39
1.566648 0.84763074 -0.057775855 6.9132401e-39
1.566654 0.84360027 -0.057775855 7.0054357e-39
1.56666 0.83956987 -0.057775855 7.2837925e-39
1.5565779 0.83055961 -0.048198342 7.3759881e-39
1.5060641 0.895796 -0.0053714514 7.0072182e-39
1.5060698 0.89191037 -0.0053714514 7.0994138e-39
1.5161535 0.89352435 -0.014971852 7.2831044e-39
1.5161592 0.88961387 -0.014971852 7.1909088e-39
1.516165 0.88570338 -0.014971852 7.1905403e-39
1.544854 0.89723462 -0.042296171 7.2827359e-39
1.554938 0.89865434 -0.051896691 7.3749315e-39
1.5549439 0.89464867 -0.051896691 7.1905403e-39
1.5549499 0.89064294 -0.051896691 7.0068525e-39
1.5549558 0.88663721 -0.051896691 7.1912437e-39
1.5549618 0.88263154 -0.051896691 7.1916123e-39
1.5549678 0.87862581 -0.051896691 7.1916123e-39
1.5650519 0.87987232 -0.061497092 7.3756378e-39
1.5650579 0.87584186 -0.061497092 7.4678334e-39
1.5650638 0.87181133 -0.061497092 7.4674803e-39
1.5650698 0.86778086 -0.061497092 7.3752847e-39
1.5860076 0.87445289 -0.081436515 7.0994012e-39
1.5650818 0.85971993 -0.061497092 7.0994012e-39
1.5751661 0.86079299 -0.071097612 7.1905431e-39
1.5751722 0.85673773 -0.071097612 7.2827387e-39
1.5650998 0.84762847 -0.061497092 7.6518715e-39
1.5651058 0.84359801 -0.061497092 7.7440672e-39
1.5651118 0.8395676 -0.061497092 7.560029e-39
1.5550392 0.83055729 -0.051896691 7.7444203e-39
1.4952718 0.89453429 -7.5936317e-05 6.6373567e-39
1.5045714 0.8957938 -0.0089589357 7.0979845e-39
1.5146455 0.89743257 -0.018582344 7.1901801e-39
1.523945 0.89859879 -0.027465224 7.1912591e-39
1.5146571 0.88961166 -0.018582344 7.0068679e-39
1.5239567 0.89073217 -0.027465224 6.8224766e-39
1.5433248 0.89723235 -0.045971751 7.0068679e-39
1.5433307 0.89325142 -0.045971751 7.46713e-39
1.5433366 0.88927048 -0.045971751 7.1905431e-39
1.5534111 0.89064068 -0.05559504 7.1897948e-39
1.5534171 0.88663495 -0.05559504 7.5585773e-39
1.553423 0.88262928 -0.05559504 7.3745812e-39
1.553429 0.87862355 -0.05559504 7.2823856e-39
1.553435 0.87461782 -0.05559504 7.2834421e-39
1.5635096 0.87583953 -0.065218329 7.560029e-39
1.5635155 0.87180901 -0.065218329 7.7429882e-39
1.5635216 0.86777854 -0.065218329 7.5585969e-39
1.5735964 0.86890113 -0.074841738 7.1916123e-39
1.5635335 0.85971761 -0.065218329 7.007221e-39
1.5635396 0.85568714 -0.065218329 7.0990635e-39
1.5635456 0.85165668 -0.065218329 7.467846e-39
1.5635515 0.84762615 -0.065218329 7.928827e-39
1.5635575 0.84359568 -0.065218329 7.4678488e-39
1.5534945 0.83456075 -0.05559504 7.560029e-39
1.5434313 0.82557529 -0.045971751 7.7444203e-39
1.5240736 0.81206554 -0.027465224 7.6518715e-39
1.493788 0.89453208 -0.0036424398 6.7302712e-39
1.5030788 0.89579159 -0.012546539 6.8217479e-39
1.5131433 0.8974303 -0.022192836 6.6373567e-39
1.5131491 0.89351988 -0.022192836 6.2703566e-39
1.5224398 0.89466327 -0.031096816 6.4547479e-39
1.5224457 0.89072996 -0.031096816 6.7299279e-39
1.5325104 0.89222199 -0.040742993 6.7299279e-39
1.5325164 0.88826394 -0.040742993 7.0979845e-39
1.5418074 0.88926822 -0.049647212 6.9135932e-39
1.5418133 0.88528728 -0.049647212 6.9132079e-39
1.5518783 0.88663268 -0.059293389 7.4663817e-39
1.5518843 0.88262701 -0.059293389 7.5589851e-39
1.5518903 0.87862128 -0.059293389 7.1902026e-39
1.5518962 0.87461555 -0.059293389 7.1912437e-39
1.5619613 0.87583721 -0.068939567 7.375635e-39
1.5619674 0.87180668 -0.068939567 7.3749315e-39
1.5619733 0.86777622 -0.068939567 7.2827359e-39
1.5619793 0.86374575 -0.068939567 7.1912619e-39
1.5619854 0.85971528 -0.068939567 7.2834576e-39
1.5619913 0.85568482 -0.068939567 7.3760035e-39
1.5619973 0.85165435 -0.068939567 7.6525904e-39
1.5519439 0.84256989 -0.059293389 7.5611235e-39
1.5519499 0.83856416 -0.059293389 6.7313628e-39
1.5519558 0.83455849 -0.059293389 7.0068707e-39
1.5419021 0.82557303 -0.049647212 7.4678488e-39
1.5419079 0.82159209 -0.049647212 7.4678334e-39
1.4923041 0.89452988 -0.0072088242 6.6373693e-39
1.5015862 0.89578933 -0.016134143 6.3614985e-39
1.5116411 0.8974281 -0.025803208 6.5458897e-39
1.511647 0.89351767 -0.025803208 6.0859808e-39
1.520929 0.89466101 -0.034728408 6.0859808e-39
1.5209348 0.8907277 -0.034728408 6.3611453e-39
1.53099 0.89221978 -0.044397473 6.453341e-39
1.5309958 0.88826174 -0.044397473 7.0054357e-39
1.5310017 0.88430363 -0.044397473 6.9132401e-39
1.540284 0.88528502 -0.053322673 6.7299026e-39
1.54029 0.88130403 -0.053322673 7.1908808e-39
1.540296 0.87732309 -0.053322673 7.7433637e-39
1.5503515 0.87861896 -0.062991738 7.1901899e-39
1.5503575 0.87461323 -0.062991738 7.0983446e-39
1.5503634 0.8706075 -0.062991738 7.1905403e-39
1.5604191 0.87180442 -0.072660923 7.1905431e-39
1.5503753 0.86259609 -0.062991738 7.1905431e-39
1.5604311 0.86374348 -0.072660923 7.2827387e-39
1.5503873 0.85458463 -0.062991738 7.46713e-39
1.5503932 0.85057896 -0.062991738 7.3760035e-39
1.5503992 0.84657323 -0.062991738 7.5603948e-39
1.5504051 0.84256756 -0.062991738 7.2845338e-39
1.5504111 0.83856183 -0.062991738 6.4547731e-39
1.5403669 0.8295517 -0.053322673 6.7313502e-39
1.5403728 0.82557076 -0.053322673 6.9157414e-39
1.5403787 0.82158983 -0.053322673 7.283089e-39
1.4815414 0.89706242 -0.0018289089 6.8221235e-39
1.4908146 0.89839047 -0.010775328 7.0979845e-39
1.5000877 0.89967287 -0.019721746 6.2682238e-39
1.5000936 0.89578712 -0.019721746 5.9012588e-39
1.510139 0.89742583 -0.0294137 6.7310195e-39
1.5194122 0.89859205 -0.03836 6.8224766e-39
1.519418 0.89465874 -0.03836 6.5458897e-39
1.5194238 0.89072543 -0.03836 6.6363001e-39
1.5294696 0.89221752 -0.048051953 6.7284957e-39
1.5294755 0.88825947 -0.048051953 7.1901899e-39
1.5294813 0.88430136 -0.048051953 7.1901899e-39
1.5387548 0.88528275 -0.056998372 7.0990537e-39
1.5387608 0.88130176 -0.056998372 7.1912493e-39
1.5387667 0.87732083 -0.056998372 7.2827359e-39
1.5387726 0.87333989 -0.056998372 7.2827359e-39
1.5488187 0.87461096 -0.066690207 7.1905431e-39
1.5488247 0.87060523 -0.066690207 7.1905431e-39
1.5488306 0.86659956 -0.066690207 7.2823856e-39
1.5488366 0.86259383 -0.066690207 7.2823856e-39
1.5488425 0.8585881 -0.066690207 7.3753001e-39
1.5488485 0.85458237 -0.066690207 7.2831044e-39
1.5488545 0.8505767 -0.066690207 7.1919626e-39
1.5488604 0.84657097 -0.066690207 7.2841582e-39
1.5488664 0.8425653 -0.066690207 7.2838079e-39
1.5488724 0.83855957 -0.066690207 6.5462428e-39
1.5388377 0.82954943 -0.056998372 6.9153757e-39
1.5295755 0.82097191 -0.048051953 7.099767e-39
1.5388495 0.82158756 -0.056998372 7.283089e-39
1.4800663 0.89706022 -0.0053743124 7.0068679e-39
1.4893306 0.89838827 -0.014341831 6.7317229e-39
1.4985951 0.89967066 -0.02330935 6.1785491e-39
1.5086311 0.90133411 -0.033024192 6.453341e-39
1.5086368 0.89742362 -0.033024192 7.0065147e-39
1.5179013 0.89858985 -0.041991591 8.0206541e-39
1.517907 0.89465654 -0.041991591 7.1908934e-39
1.517913 0.89072323 -0.041991591 7.0039966e-39
1.5279492 0.89221525 -0.051706195 7.2805835e-39
1.5279551 0.88825721 -0.051706195 8.203616e-39
1.5279609 0.8842991 -0.051706195 7.2816597e-39
1.5372256 0.88528049 -0.060673833 7.1912493e-39
1.5372316 0.8812995 -0.060673833 7.1912493e-39
1.5372375 0.87731856 -0.060673833 7.1912591e-39
1.5372434 0.87333763 -0.060673833 7.1912591e-39
1.5472801 0.8746087 -0.070388556 7.1912591e-39
1.547286 0.87060297 -0.070388556 7.1912591e-39
1.5472919 0.86659729 -0.070388556 7.1912591e-39
1.5472978 0.86259156 -0.070388556 7.0990635e-39
1.5473038 0.85858583 -0.070388556 7.3749343e-39
1.5473098 0.8545801 -0.070388556 7.3749343e-39
1.5372847 0.84547096 -0.060673833 7.1919626e-39
1.5372907 0.84149003 -0.060673833 7.2841582e-39
1.5372967 0.8375091 -0.060673833 6.9157512e-39
1.5373026 0.83352816 -0.060673833 6.6391643e-39
1.5280491 0.82492769 -0.051706195 7.1916123e-39
1.518024 0.81598997 -0.041991591 7.1916123e-39
1.5280609 0.81701154 -0.051706195 7.2838079e-39
1.5180357 0.80812329 -0.041991591 7.4681991e-39
1.4700954 0.9037568 -0.00068020821 6.4519116e-39
1.4701011 0.89993775 -0.00068020821 6.2675204e-39
1.4701067 0.8961187 -0.00068020821 7.0057889e-39
1.4785912 0.89705807 -0.0089197159 7.1901801e-39
1.4878469 0.89838606 -0.017908335 7.1905403e-39
1.4878526 0.89452326 -0.017908335 6.9139534e-39
1.4971083 0.89578271 -0.026896834 6.7288489e-39
1.5071348 0.89742136 -0.036634564 6.9132401e-39
1.5163903 0.89858758 -0.045623064 6.9139436e-39
1.5163962 0.89465427 -0.045623064 7.0983348e-39
1.516402 0.89072096 -0.045623064 7.2809366e-39
1.5264287 0.89221299 -0.055360675 7.188741e-39
1.5264345 0.88825494 -0.055360675 7.1898116e-39
1.5264405 0.88429683 -0.055360675 7.1898116e-39
1.5356964 0.88527817 -0.064349294 7.1912493e-39
1.5357023 0.88129717 -0.064349294 7.1912493e-39
1.5264581 0.87242252 -0.055360675 7.1905403e-39
1.5357143 0.8733353 -0.064349294 7.3749315e-39
1.5357201 0.86935431 -0.064349294 7.4674803e-39
1.5357261 0.86537337 -0.064349294 7.4674803e-39
1.5457532 0.86659497 -0.074087024 7.3760035e-39
1.5457592 0.86258924 -0.074087024 7.2838079e-39
1.5457652 0.85858351 -0.074087024 7.2834548e-39
1.5357497 0.84944957 -0.064349294 7.3756504e-39
1.5357556 0.84546864 -0.064349294 7.1916123e-39
1.5357615 0.84148771 -0.064349294 7.3760035e-39
1.5265169 0.83284163 -0.055360675 7.0990663e-39
1.5265228 0.82888353 -0.055360675 7.0068707e-39
1.5165073 0.81992102 -0.045623064 7.1916123e-39
1.5165131 0.81598771 -0.045623064 6.3618516e-39
1.516519 0.81205434 -0.045623064 7.283089e-39
1.5165248 0.80812103 -0.045623064 7.4674803e-39
1.468634 0.8999356 -0.0042062998 6.3607978e-39
1.4686397 0.89611655 -0.0042062998 7.1898116e-39
1.4771162 0.89705586 -0.012465119 7.1898116e-39
1.4956042 0.90355188 -0.030484557 7.1898116e-39
1.4956099 0.89966619 -0.030484557 7.097616e-39
1.4956156 0.89578044 -0.030484557 7.0057889e-39
1.5056325 0.89741915 -0.040245056 7.0057889e-39
1.5148793 0.89858532 -0.049254656 6.9139436e-39
1.5148852 0.89465201 -0.049254656 7.0983348e-39
1.514891 0.8907187 -0.049254656 7.0979845e-39
1.5249083 0.89221072 -0.059015155 6.9135932e-39
1.5249141 0.88825268 -0.059015155 6.9132401e-39
1.52492 0.88429457 -0.059015155 6.9132401e-39
1.5249259 0.88033646 -0.059015155 7.0976314e-39
1.5249318 0.87637836 -0.059015155 7.2820226e-39
1.5249376 0.87242025 -0.059015155 7.1905431e-39
1.5249436 0.86846215 -0.059015155 7.46713e-39
1.5249494 0.8645041 -0.059015155 8.2046922e-39
1.5249554 0.86054599 -0.059015155 7.3749315e-39
1.5342027 0.86139017 -0.068024874 7.284161e-39
1.5342087 0.85740924 -0.068024874 7.284161e-39
1.5342145 0.85342824 -0.068024874 7.0068707e-39
1.5249789 0.84471357 -0.059015155 7.2834576e-39
1.5342263 0.84546638 -0.068024874 7.2848869e-39
1.5249907 0.83679748 -0.059015155 7.1004956e-39
1.5249965 0.83283937 -0.059015155 6.8235584e-39
1.5250024 0.82888126 -0.059015155 6.915754e-39
1.5149963 0.81991875 -0.049254656 7.7444329e-39
1.5150021 0.81598544 -0.049254656 7.0990635e-39
1.515008 0.81205207 -0.049254656 7.0990635e-39
1.5150138 0.80811876 -0.049254656 7.1912591e-39
1.4671614 0.90375245 -0.0077322721 7.3753001e-39
1.467167 0.8999334 -0.0077322721 6.9143219e-39
1.4756354 0.90089369 -0.016010404 7.006149e-39
1.4756411 0.89705366 -0.016010404 7.006149e-39
1.4941114 0.90354967 -0.034072042 7.2819904e-39
1.4941173 0.89966398 -0.034072042 7.0975991e-39
1.494123 0.89577824 -0.034072042 7.0979845e-39
1.5041305 0.89741695 -0.043855548 7.1901801e-39
1.5041362 0.89350653 -0.043855548 7.0983446e-39
1.5133743 0.8946498 -0.052886128 7.0983446e-39
1.5133802 0.89071649 -0.052886128 7.0061518e-39
1.5233878 0.89220846 -0.062669635 7.0061518e-39
1.5233938 0.88825041 -0.062669635 6.914675e-39
1.5233996 0.8842923 -0.062669635 6.4536969e-39
1.5234054 0.8803342 -0.062669635 6.9143219e-39
1.5234114 0.87637609 -0.062669635 6.9143219e-39
1.5234172 0.87241799 -0.062669635 7.0061518e-39
1.5234231 0.86845988 -0.062669635 6.9139562e-39
1.5134269 0.85924983 -0.052886128 6.9146722e-39
1.5234349 0.86054373 -0.062669635 6.2693028e-39
1.5234407 0.85658562 -0.062669635 6.2710601e-39
1.5234467 0.85262752 -0.062669635 6.9164295e-39
1.5234525 0.84866941 -0.062669635 6.6377322e-39
1.5134561 0.83958322 -0.052886128 6.2689497e-39
1.5234643 0.84075332 -0.062669635 6.4536941e-39
1.5134678 0.83171654 -0.052886128 6.5458897e-39
1.5134736 0.82778323 -0.052886128 6.9146722e-39
1.5134796 0.82384986 -0.052886128 7.0990635e-39
1.5134853 0.81991655 -0.052886128 7.3756378e-39
1.5042583 0.81138659 -0.043855548 7.0068553e-39
1.5042641 0.8074761 -0.043855548 7.0057889e-39
1.50427 0.80356562 -0.043855548 7.0979845e-39
1.5042757 0.79965514 -0.043855548 6.9146722e-39
1.4564655 0.90228707 -0.0022064447 7.2827261e-39
1.4656943 0.90375024 -0.011258245 7.099795e-39
1.4741546 0.90473145 -0.019555807 6.8232081e-39
1.4741603 0.90089148 -0.019555807 7.0068679e-39
1.4833895 0.9022423 -0.028607726 7.0068679e-39
1.4926188 0.90354747 -0.037659764 7.0068581e-39
1.4926246 0.89966178 -0.037659764 7.0068581e-39
1.4926304 0.89577603 -0.037659764 7.006149e-39
1.4926361 0.89189041 -0.037659764 7.0983446e-39
1.5026342 0.89350426 -0.04746592 7.1905403e-39
1.5118634 0.89464754 -0.05651772 7.1905403e-39
1.5118692 0.89071423 -0.05651772 7.1905431e-39
1.511875 0.88678092 -0.05651772 7.1905431e-39
1.5118809 0.88284755 -0.05651772 6.6395273e-39
1.5218791 0.88429004 -0.066323996 6.6395273e-39
1.521885 0.88033193 -0.066323996 6.8232081e-39
1.5218909 0.87637383 -0.066323996 6.8232081e-39
1.5119044 0.86711425 -0.05651772 6.914675e-39
1.5119101 0.86318088 -0.05651772 6.914675e-39
1.511916 0.85924757 -0.05651772 6.5458897e-39
1.5119218 0.85531425 -0.05651772 6.3614985e-39
1.5119277 0.85138088 -0.05651772 6.3621991e-39
1.5119336 0.84744757 -0.05651772 6.7309816e-39
1.5119394 0.8435142 -0.05651772 6.7299279e-39
1.5119452 0.83958095 -0.05651772 6.3611453e-39
1.5119511 0.83564764 -0.05651772 6.5458897e-39
1.5027329 0.82702625 -0.04746592 6.5458897e-39
1.5119628 0.82778096 -0.05651772 6.9146722e-39
1.5027446 0.81920528 -0.04746592 7.0068679e-39
1.5027503 0.8152948 -0.04746592 7.0990537e-39
1.5027561 0.81138432 -0.04746592 6.9146624e-39
1.502762 0.80747384 -0.04746592 6.8217479e-39
1.5027678 0.80356336 -0.04746592 7.0983348e-39
1.4550016 0.90608108 -0.0057114363 5.5313594e-39
1.4550072 0.90228486 -0.0057114363 5.4391638e-39
1.4642273 0.9037481 -0.014784455 6.0842081e-39
1.4726795 0.90472925 -0.023101211 6.360795e-39
1.4726852 0.90088928 -0.023101211 6.5451835e-39
1.4819057 0.9022401 -0.03217423 7.0061616e-39
1.4911262 0.90354526 -0.041247249 7.1905403e-39
1.491132 0.89965957 -0.041247249 7.1905403e-39
1.4911377 0.89577383 -0.041247249 7.1905403e-39
1.5011262 0.89741248 -0.051076412 7.1905403e-39
1.5011319 0.89350206 -0.051076412 7.2827359e-39
1.5103525 0.89464527 -0.060149312 7.3749315e-39
1.5103583 0.89071196 -0.060149312 7.3749343e-39
1.5103642 0.88677865 -0.060149312 7.2827387e-39
1.51037 0.88284528 -0.060149312 7.1912619e-39
1.5203587 0.88428777 -0.069978356 7.1912619e-39
1.5203646 0.88032967 -0.069978356 7.0058141e-39
1.5103875 0.87104529 -0.060149312 6.9136185e-39
1.5103934 0.86711198 -0.060149312 7.0990663e-39
1.5103992 0.86317861 -0.060149312 7.0068707e-39
1.5104051 0.8592453 -0.060149312 7.0068679e-39
1.5104109 0.85531199 -0.060149312 6.9146722e-39
1.5012017 0.84657633 -0.051076412 6.6398832e-39
1.5012075 0.84266591 -0.051076412 6.6398832e-39
1.5104284 0.84351194 -0.060149312 6.914675e-39
1.5012192 0.83484501 -0.051076412 6.8224794e-39
1.5104401 0.83564538 -0.060149312 6.6377322e-39
1.5012307 0.82702404 -0.051076412 6.6377322e-39
1.5104518 0.8277787 -0.060149312 6.9146722e-39
1.5012424 0.81920308 -0.051076412 7.0068679e-39
1.5012482 0.8152926 -0.051076412 7.0990537e-39
1.4912705 0.8064025 -0.041247249 7.0068581e-39
1.5012598 0.80747163 -0.051076412 7.0068426e-39
1.5012656 0.80356115 -0.051076412 7.0990383e-39
1.5012714 0.79965067 -0.051076412 7.284161e-39
1.4443207 0.91209382 -0.00012218952 6.0852619e-39
1.453532 0.91367131 -0.0092163086 6.0852619e-39
1.4535376 0.90987509 -0.0092163086 5.808675e-39
1.4535433 0.90607893 -0.0092163086 5.807596e-39
1.4535489 0.90228271 -0.0092163086 5.807596e-39
1.4627603 0.90374589 -0.018310428 6.1756751e-39
1.4712044 0.9047271 -0.026646614 6.7288489e-39
1.4712101 0.90088713 -0.026646614 6.730281e-39
1.4804219 0.90223789 -0.035740733 7.0068679e-39
1.4896336 0.90354306 -0.044834852 7.1905403e-39
1.4896394 0.89965737 -0.044834852 7.1905403e-39
1.4896451 0.89577162 -0.044834852 7.1908934e-39
1.499624 0.89741021 -0.054686904 7.0986978e-39
1.4996299 0.89349979 -0.054686904 7.1905403e-39
1.4996356 0.88958931 -0.054686904 7.4671272e-39
1.4996414 0.88567883 -0.054686904 7.46713e-39
1.5088532 0.88677645 -0.063780904 7.2827387e-39
1.508859 0.88284308 -0.063780904 7.2834548e-39
1.508865 0.87890977 -0.063780904 7.0990635e-39
1.5188441 0.8803274 -0.073632836 6.8217732e-39
1.5088767 0.87104309 -0.063780904 7.0061644e-39
1.5088824 0.86710978 -0.063780904 6.914675e-39
1.5088884 0.86317641 -0.063780904 7.0068707e-39
1.5088941 0.85924309 -0.063780904 7.0072182e-39
1.5089 0.85530978 -0.063780904 7.0072182e-39
1.4996995 0.84657407 -0.054686904 6.7317229e-39
1.4997053 0.84266365 -0.054686904 6.7317229e-39
1.5089176 0.84350973 -0.063780904 6.7317229e-39
1.499717 0.83484274 -0.054686904 6.7317229e-39
1.4997228 0.83093226 -0.054686904 6.8221235e-39
1.4997286 0.82702178 -0.054686904 6.6377322e-39
1.4997344 0.8231113 -0.054686904 6.9143219e-39
1.4997402 0.81920081 -0.054686904 7.0065175e-39
1.4897722 0.81028605 -0.044834852 7.0068679e-39
1.4897779 0.8064003 -0.044834852 7.0068679e-39
1.4897836 0.80251461 -0.044834852 7.0990537e-39
1.4897895 0.79862887 -0.044834852 7.283445e-39
1.4897952 0.79474318 -0.044834852 7.1912591e-39
1.4428712 0.91209167 -0.0036059618 6.3611453e-39
1.4520737 0.91366911 -0.012721181 6.3614985e-39
1.4612762 0.91520089 -0.0218364 6.1771072e-39
1.452085 0.90607673 -0.012721181 6.1756751e-39
1.4520906 0.90228051 -0.012721181 6.2678707e-39
1.4612933 0.90374374 -0.0218364 6.5444576e-39
1.4697294 0.9047249 -0.030192018 7.0976314e-39
1.4697351 0.90088493 -0.030192018 7.0990537e-39
1.478938 0.90223569 -0.039307237 7.0990537e-39
1.4881409 0.90354079 -0.048422456 7.1905403e-39
1.4881467 0.8996551 -0.048422456 7.2827359e-39
1.4881525 0.89576936 -0.048422456 7.1908934e-39
1.4881582 0.89188373 -0.048422456 7.1908934e-39
1.4981276 0.89349759 -0.058297276 7.0990537e-39
1.4981334 0.8895871 -0.058297276 7.283445e-39
1.4981393 0.88567662 -0.058297276 7.2827387e-39
1.4981451 0.88176614 -0.058297276 6.2685868e-39
1.4981509 0.87785566 -0.058297276 6.54624e-39
1.507354 0.8789075 -0.067412496 6.6384357e-39
1.5073599 0.87497413 -0.067412496 6.8221235e-39
1.5073657 0.87104082 -0.067412496 6.9143191e-39
1.5073715 0.86710751 -0.067412496 7.0068679e-39
1.5073774 0.86317414 -0.067412496 6.730281e-39
1.4981858 0.85439283 -0.058297276 6.6384357e-39
1.4981916 0.85048234 -0.058297276 7.0072182e-39
1.4981974 0.84657186 -0.058297276 6.7317229e-39
1.4982032 0.84266144 -0.058297276 6.5473317e-39
1.498209 0.83875096 -0.058297276 6.8221235e-39
1.4982148 0.83484054 -0.058297276 6.9143191e-39
1.4982206 0.83093005 -0.058297276 6.8221235e-39
1.4982264 0.82701957 -0.058297276 6.8221235e-39
1.4982322 0.82310909 -0.058297276 7.0980069e-39
1.4882737 0.81416947 -0.048422456 7.0058113e-39
1.4882795 0.81028378 -0.048422456 7.0068707e-39
1.4790872 0.80180156 -0.039307237 7.0068707e-39
1.4882911 0.80251235 -0.048422456 7.0983446e-39
1.4882969 0.7986266 -0.048422456 7.1905403e-39
1.4883026 0.79474092 -0.048422456 6.914675e-39
1.4414217 0.91208953 -0.0070898533 6.1785519e-39
1.4506155 0.91366696 -0.016226172 6.453341e-39
1.4506211 0.90987074 -0.016226172 6.1767541e-39
1.4506269 0.90607458 -0.016226172 6.635947e-39
1.4598206 0.90756059 -0.025362492 6.635947e-39
1.4598262 0.90374154 -0.025362492 7.0039966e-39
1.459832 0.89992249 -0.025362492 7.5571704e-39
1.46826 0.90088272 -0.033737302 7.3738525e-39
1.4774541 0.90223348 -0.04287374 7.3738525e-39
1.4774599 0.89837062 -0.04287374 7.1912619e-39
1.486654 0.8996529 -0.052010059 7.1912619e-39
1.4866599 0.89576715 -0.052010059 7.2827359e-39
1.4866656 0.89188153 -0.052010059 7.3749315e-39
1.4866713 0.88799578 -0.052010059 7.283089e-39
1.4866772 0.88411009 -0.052010059 7.3752847e-39
1.4866829 0.88022435 -0.052010059 7.2827387e-39
1.4966429 0.88176388 -0.061907768 6.8217605e-39
1.4866945 0.87245291 -0.052010059 6.8217479e-39
1.4966546 0.87394297 -0.061907768 7.0983348e-39
1.4966604 0.87003249 -0.061907768 7.0068679e-39
1.4966662 0.86612201 -0.061907768 6.9146722e-39
1.496672 0.86221153 -0.061907768 7.0068679e-39
1.4966778 0.85830104 -0.061907768 7.1912591e-39
1.4966836 0.85439056 -0.061907768 7.0083e-39
1.4966894 0.85048008 -0.061907768 7.2848869e-39
1.4966953 0.8465696 -0.061907768 7.1937773e-39
1.4967011 0.84265918 -0.061907768 6.8249947e-39
1.4967068 0.83874869 -0.061907768 6.0863563e-39
1.4967127 0.83483827 -0.061907768 5.9941607e-39
1.4967185 0.83092779 -0.061907768 6.4519116e-39
1.4867696 0.82193869 -0.052010059 6.6363029e-39
1.4967301 0.82310683 -0.061907768 7.0054385e-39
1.4867811 0.81416726 -0.052010059 7.0054385e-39
1.4867868 0.81028157 -0.052010059 6.9132401e-39
1.4867927 0.80639583 -0.052010059 6.9132401e-39
1.4867984 0.80251014 -0.052010059 7.1905403e-39
1.4868042 0.7986244 -0.052010059 7.2827359e-39
1.4776206 0.79021084 -0.04287374 7.0061518e-39
1.4776263 0.78634799 -0.04287374 7.0061518e-39
1.4684427 0.77800286 -0.033737302 6.7324292e-39
1.4315358 0.92217106 -0.0021795034 5.9923628e-39
1.4399555 0.92340738 -0.010573745 6.2693028e-39
1.4399611 0.91963404 -0.010573745 6.3614985e-39
1.4491459 0.9212572 -0.019731164 6.5455366e-39
1.4491516 0.91746104 -0.019731164 6.8221235e-39
1.4583365 0.91901559 -0.028888583 6.6377322e-39
1.4583422 0.91519654 -0.028888583 6.1767541e-39
1.4583479 0.91137749 -0.028888583 6.8210697e-39
1.4583535 0.90755844 -0.028888583 6.9132653e-39
1.4583592 0.90373939 -0.028888583 7.0054357e-39
1.4667792 0.90472049 -0.037282825 7.0054357e-39
1.466785 0.90088052 -0.037282825 7.1905403e-39
1.4667907 0.89704049 -0.037282825 7.4671272e-39
1.475976 0.89836842 -0.046440244 7.3745812e-39
1.4759817 0.89450562 -0.046440244 7.1901899e-39
1.4851671 0.89576495 -0.055597663 7.3738525e-39
1.485173 0.89187932 -0.055597663 7.5582438e-39
1.4851788 0.88799357 -0.055597663 7.5585969e-39
1.4851846 0.88410789 -0.055597663 7.5585969e-39
1.4851903 0.88022214 -0.055597663 7.283089e-39
1.4851961 0.87633646 -0.055597663 6.9143065e-39
1.4852018 0.87245071 -0.055597663 6.9146624e-39
1.4852077 0.86856502 -0.055597663 7.0068581e-39
1.4951582 0.87003028 -0.06551826 7.0979845e-39
1.4852191 0.86079359 -0.055597663 7.0979845e-39
1.4951699 0.86220932 -0.06551826 7.1912591e-39
1.4951757 0.85829884 -0.06551826 7.1912591e-39
1.4852365 0.84913641 -0.055597663 7.1004956e-39
1.4951873 0.85047787 -0.06551826 7.2848869e-39
1.4951931 0.84656739 -0.06551826 7.1926913e-39
1.4852538 0.83747935 -0.055597663 7.1004956e-39
1.4952047 0.83874649 -0.06551826 6.2703944e-39
1.4952105 0.83483607 -0.06551826 5.7172207e-39
1.4952164 0.83092558 -0.06551826 5.9920125e-39
1.4852769 0.82193649 -0.055597663 6.0842081e-39
1.4952279 0.82310462 -0.06551826 6.5458897e-39
1.4852885 0.81416506 -0.055597663 6.5458897e-39
1.4852942 0.81027937 -0.055597663 6.6377322e-39
1.4761195 0.80179715 -0.046440244 6.8221235e-39
1.4853058 0.80250794 -0.055597663 7.0983446e-39
1.4853116 0.79862219 -0.055597663 7.1905403e-39
1.4853173 0.7947365 -0.055597663 7.0987132e-39
1.4761425 0.78634578 -0.046440244 7.0987132e-39
1.4669676 0.77800065 -0.037282825 7.0072182e-39
1.4669733 0.77416068 -0.037282825 5.4398925e-39
1.4300945 0.92216891 -0.0056439638 6.3604195e-39
1.438506 0.92340523 -0.014057517 6.3611453e-39
1.4476821 0.92505121 -0.023236036 6.3611453e-39
1.4476877 0.92125499 -0.023236036 6.453341e-39
1.4568638 0.92283243 -0.032414556 6.7299279e-39
1.4568695 0.91901338 -0.032414556 7.2827359e-39
1.4568752 0.91519433 -0.032414556 6.5451709e-39
1.4568808 0.91137528 -0.032414556 7.0054357e-39
1.4568865 0.90755624 -0.032414556 7.0054357e-39
1.4652985 0.90855837 -0.040828109 7.4671272e-39
1.4653041 0.90471834 -0.040828109 6.9139534e-39
1.4653099 0.90087837 -0.040828109 6.8213948e-39
1.4653156 0.89703834 -0.040828109 7.0057861e-39
1.4744922 0.89836621 -0.050006747 7.0057889e-39
1.4744979 0.89450341 -0.050006747 7.0979845e-39
1.4745036 0.89064056 -0.050006747 7.1898116e-39
1.4836804 0.89187711 -0.059185266 7.6507897e-39
1.4836861 0.88799137 -0.059185266 7.7429882e-39
1.4836919 0.88410568 -0.059185266 7.1898144e-39
1.4836977 0.88021994 -0.059185266 6.5448107e-39
1.4837035 0.87633425 -0.059185266 6.4526151e-39
1.4837092 0.8724485 -0.059185266 6.9132079e-39
1.4837149 0.86856282 -0.059185266 7.0975991e-39
1.4837208 0.86467707 -0.059185266 7.0057889e-39
1.4837265 0.86079139 -0.059185266 6.8213976e-39
1.4837323 0.85690564 -0.059185266 6.915754e-39
1.4837381 0.85301995 -0.059185266 7.1923409e-39
1.4837439 0.84913421 -0.059185266 7.1926913e-39
1.4936851 0.85047561 -0.069128633 7.1926913e-39
1.493691 0.84656513 -0.069128633 7.0079469e-39
1.4936968 0.84265471 -0.069128633 7.0079469e-39
1.4937025 0.83874422 -0.069128633 6.6395329e-39
1.4937084 0.8348338 -0.069128633 5.8097722e-39
1.4937142 0.83092332 -0.069128633 5.9016147e-39
1.4937199 0.82701284 -0.069128633 5.9016147e-39
1.4937258 0.82310236 -0.069128633 6.6373567e-39
1.4837958 0.81416285 -0.059185266 6.8217479e-39
1.47463 0.8056578 -0.050006747 6.6380854e-39
1.4746357 0.80179495 -0.050006747 6.8224766e-39
1.4746414 0.79793209 -0.050006747 7.0068679e-39
1.4746472 0.79406923 -0.050006747 7.6522373e-39
1.4746529 0.79020643 -0.050006747 7.6533191e-39
1.4654868 0.78183854 -0.040828109 6.8235584e-39
1.4654925 0.77799851 -0.040828109 6.9146722e-39
1.4654982 0.77415854 -0.040828109 5.5317378e-39
1.4202439 0.92461991 -0.00067543983 6.270372e-39
1.4202493 0.92088848 -0.00067543983 6.7309816e-39
1.428653 0.92216676 -0.0091084242 7.1919598e-39
1.4370565 0.92340308 -0.017541289 7.0068679e-39
1.4370621 0.91962975 -0.017541289 6.5458897e-39
1.4462296 0.92125285 -0.026741028 6.2707476e-39
1.4553968 0.92283022 -0.035940528 6.3629432e-39
1.4554025 0.91901118 -0.035940528 6.7309816e-39
1.4554081 0.91519213 -0.035940528 5.5324384e-39
1.463812 0.91623616 -0.044373512 6.6380601e-39
1.4638177 0.91239613 -0.044373512 6.914647e-39
1.4638234 0.90855616 -0.044373512 7.0061392e-39
1.4638292 0.90471613 -0.044373512 7.0061392e-39
1.4638349 0.90087616 -0.044373512 7.0057889e-39
1.4638405 0.89703614 -0.044373512 6.8213976e-39
1.4638462 0.89319623 -0.044373512 6.6373567e-39
1.4638519 0.8893562 -0.044373512 6.8217479e-39
1.4638577 0.88551623 -0.044373512 6.8213948e-39
1.4730256 0.88677549 -0.053573132 6.9135904e-39
1.4730313 0.88291264 -0.053573132 6.9139436e-39
1.473037 0.87904978 -0.053573132 6.3607698e-39
1.4730427 0.87518692 -0.053573132 6.1767541e-39
1.4822108 0.87633204 -0.06277287 5.8079716e-39
1.4730543 0.8674612 -0.053573132 6.0855898e-39
1.4822224 0.86856061 -0.06277287 6.7309592e-39
1.4822282 0.86467487 -0.06277287 6.9139436e-39
1.4822339 0.86078918 -0.06277287 7.0061392e-39
1.4822397 0.85690343 -0.06277287 7.0068679e-39
1.4822454 0.85301775 -0.06277287 7.3756504e-39
1.4822513 0.849132 -0.06277287 7.3763566e-39
1.492183 0.8504734 -0.072739124 7.4685523e-39
1.4921888 0.84656292 -0.072739124 7.2845366e-39
1.4921947 0.8426525 -0.072739124 7.0079497e-39
1.4922005 0.83874202 -0.072739124 6.6395273e-39
1.4922062 0.8348316 -0.072739124 6.2707448e-39
1.4922121 0.83092111 -0.072739124 6.2707476e-39
1.4922179 0.82701063 -0.072739124 6.2707476e-39
1.4822974 0.81804639 -0.06277287 6.914647e-39
1.4731404 0.80951846 -0.053573132 7.0990383e-39
1.4731461 0.8056556 -0.053573132 7.3756378e-39
1.4731518 0.80179274 -0.053573132 7.4678334e-39
1.4731575 0.79792988 -0.053573132 7.5607479e-39
1.4731632 0.79406703 -0.053573132 7.6529435e-39
1.473169 0.79020423 -0.053573132 7.6522373e-39
1.4731748 0.78634137 -0.053573132 7.0068679e-39
1.4640174 0.7779963 -0.044373512 6.6398832e-39
1.4640231 0.77415633 -0.044373512 5.2569488e-39
1.4640288 0.7703163 -0.044373512 5.439189e-39
1.4188105 0.92461777 -0.0041205883 6.8224766e-39
1.427206 0.92591697 -0.012572885 6.6380854e-39
1.4272116 0.92216462 -0.012572885 7.0068679e-39
1.4356071 0.92340088 -0.021025181 6.4551388e-39
1.4447657 0.92504692 -0.0302459 6.0863563e-39
1.4539241 0.92664713 -0.039466739 6.2711007e-39
1.4539298 0.92282808 -0.039466739 6.3632963e-39
1.4539355 0.91900903 -0.039466739 6.6380854e-39
1.4539411 0.91518998 -0.039466739 6.3614985e-39
1.4623369 0.91623396 -0.047918916 6.7299026e-39
1.4623426 0.91239393 -0.047918916 6.7299026e-39
1.4623483 0.90855396 -0.047918916 6.6373567e-39
1.4623541 0.90471393 -0.047918916 6.7295523e-39
1.4623598 0.90087396 -0.047918916 7.1905403e-39
1.4623655 0.89703393 -0.047918916 7.0983446e-39
1.4623712 0.89319402 -0.047918916 6.4540444e-39
1.4623768 0.88935399 -0.047918916 6.54624e-39
1.4623826 0.88551402 -0.047918916 6.6380854e-39
1.4715418 0.88677329 -0.057139635 6.5458897e-39
1.462394 0.87783402 -0.047918916 6.5458897e-39
1.4623997 0.87399399 -0.047918916 6.6380854e-39
1.4715589 0.87518471 -0.057139635 6.2703944e-39
1.4715647 0.87132186 -0.057139635 5.8094163e-39
1.4715704 0.867459 -0.057139635 5.9030188e-39
1.4715761 0.86359614 -0.057139635 6.2718013e-39
1.4715818 0.85973328 -0.057139635 6.8213976e-39
1.4807413 0.86078691 -0.066360354 7.0979845e-39
1.4807471 0.85690117 -0.066360354 6.8224766e-39
1.4807528 0.85301548 -0.066360354 7.2834548e-39
1.4807585 0.84912974 -0.066360354 7.6525904e-39
1.4906808 0.85047114 -0.076349616 7.3760035e-39
1.4906867 0.84656066 -0.076349616 7.3756532e-39
1.4906925 0.84265023 -0.076349616 7.0990663e-39
1.4906982 0.83873975 -0.076349616 6.3629432e-39
1.4807874 0.82970124 -0.066360354 6.1785519e-39
1.4807932 0.82581556 -0.066360354 6.2707476e-39
1.4807991 0.82192981 -0.066360354 6.2707476e-39
1.4808048 0.81804413 -0.066360354 6.7313502e-39
1.4716564 0.80951625 -0.057139635 6.9157414e-39
1.4716623 0.80565339 -0.057139635 7.1912591e-39
1.471668 0.80179054 -0.057139635 7.6522373e-39
1.4716737 0.79792768 -0.057139635 7.468925e-39
1.4716794 0.79406482 -0.057139635 7.1923381e-39
1.4716852 0.79020202 -0.057139635 7.0079497e-39
1.471691 0.78633916 -0.057139635 6.8235584e-39
1.4625424 0.7779941 -0.047918916 6.6398832e-39
1.4625481 0.77415413 -0.047918916 5.9023182e-39
1.4625537 0.7703141 -0.047918916 5.3487913e-39
1.417366 0.93207848 -0.0075657368 6.2693028e-39
1.4173716 0.92834705 -0.0075657368 6.729202e-39
1.425759 0.92966723 -0.016037345 6.8213976e-39
1.4257647 0.92591482 -0.016037345 6.8217479e-39
1.434152 0.92717206 -0.024509072 6.9139436e-39
1.4433018 0.92884088 -0.033750892 6.730281e-39
1.4524513 0.93046397 -0.042992711 6.3614985e-39
1.4524571 0.92664492 -0.042992711 6.5458897e-39
1.4524628 0.92282587 -0.042992711 6.5458897e-39
1.4524684 0.91900682 -0.042992711 6.5458897e-39
1.4524741 0.91518778 -0.042992711 6.5458897e-39
1.4608618 0.91623175 -0.051464319 6.7295523e-39
1.4608675 0.91239172 -0.051464319 6.7295523e-39
1.4608732 0.90855175 -0.051464319 6.6370064e-39
1.4524968 0.89991158 -0.042992711 6.6370064e-39
1.4525025 0.89609253 -0.042992711 6.9139436e-39
1.4525081 0.89227355 -0.042992711 7.0983348e-39
1.4525138 0.8884545 -0.042992711 6.730281e-39
1.4525195 0.88463545 -0.042992711 6.6380854e-39
1.4525251 0.8808164 -0.042992711 6.730281e-39
1.4609132 0.88167179 -0.051464319 6.8224766e-39
1.4609189 0.87783182 -0.051464319 6.730281e-39
1.4609246 0.87399179 -0.051464319 7.0068679e-39
1.4609303 0.87015182 -0.051464319 7.0983572e-39
1.460936 0.86631179 -0.051464319 6.8217704e-39
1.4609417 0.86247182 -0.051464319 6.6380854e-39
1.4609474 0.85863179 -0.051464319 6.5458897e-39
1.4609531 0.85479182 -0.051464319 6.8210445e-39
1.4701037 0.85586822 -0.060706139 6.9132401e-39
1.4701095 0.85200536 -0.060706139 6.729202e-39
1.4792602 0.85301328 -0.069948077 6.8213976e-39
1.479266 0.84912753 -0.069948077 7.0990537e-39
1.4792718 0.84524184 -0.069948077 6.269293e-39
1.4792775 0.84135616 -0.069948077 6.3611453e-39
1.4792833 0.83747047 -0.069948077 6.8221235e-39
1.4792891 0.83358473 -0.069948077 6.6377322e-39
1.4792949 0.82969904 -0.069948077 6.453341e-39
1.4793006 0.82581335 -0.069948077 6.2707476e-39
1.4793063 0.82192761 -0.069948077 6.4551388e-39
1.4793122 0.81804192 -0.069948077 6.9146722e-39
1.4701726 0.80951405 -0.060706139 7.0068679e-39
1.4701784 0.80565119 -0.060706139 7.1912591e-39
1.4701842 0.80178833 -0.060706139 7.3756504e-39
1.4701899 0.79792547 -0.060706139 7.4681991e-39
1.4701957 0.79406261 -0.060706139 7.007221e-39
1.4702014 0.79019982 -0.060706139 6.9154009e-39
1.4702071 0.78633696 -0.060706139 6.8232053e-39
1.4610673 0.77799189 -0.051464319 7.0990635e-39
1.461073 0.77415192 -0.051464319 6.8224766e-39
1.4610786 0.77031189 -0.051464319 5.7161291e-39
1.4527011 0.76242608 -0.042992711 3.6878252e-39
1.4067866 0.93393713 -0.0017479658 6.0845584e-39
1.4159271 0.93580782 -0.011010766 6.6377322e-39
1.4159327 0.93207639 -0.011010766 6.453341e-39
1.4159383 0.92834496 -0.011010766 6.6370064e-39
1.4243176 0.92966509 -0.019501805 6.6370064e-39
1.4243232 0.92591268 -0.019501805 6.9121541e-39
1.4327025 0.92716992 -0.027992845 7.2809366e-39
1.4418435 0.92883873 -0.037255764 6.729202e-39
1.4509844 0.93046182 -0.046518683 6.729202e-39
1.4509901 0.92664278 -0.046518683 6.5458897e-39
1.4593697 0.92774951 -0.055009723 6.5458897e-39
1.4593754 0.92390954 -0.055009723 6.6380854e-39
1.451007 0.91518563 -0.046518683 6.5458897e-39
1.4593867 0.91622955 -0.055009723 6.5458897e-39
1.4593924 0.91238952 -0.055009723 6.4536941e-39
1.4510242 0.90372849 -0.046518683 6.6370035e-39
1.4510298 0.89990944 -0.046518683 6.4526123e-39
1.4510355 0.89609039 -0.046518683 6.637707e-39
1.4510411 0.8922714 -0.046518683 7.0064895e-39
1.4510468 0.88845235 -0.046518683 6.9146722e-39
1.4510525 0.8846333 -0.046518683 6.8224766e-39
1.4510581 0.88081425 -0.046518683 6.8224766e-39
1.4594381 0.88166958 -0.055009723 6.730281e-39
1.4594438 0.87782961 -0.055009723 7.0054357e-39
1.4594495 0.87398958 -0.055009723 7.2820226e-39
1.4594553 0.87014961 -0.055009723 7.0976412e-39
1.459461 0.86630958 -0.055009723 6.8210543e-39
1.4594667 0.86246961 -0.055009723 6.6380854e-39
1.4594723 0.85862958 -0.055009723 6.6380854e-39
1.459478 0.85478961 -0.055009723 6.6377322e-39
1.4686199 0.85586601 -0.064272642 6.6377322e-39
1.4686257 0.85200316 -0.064272642 6.5458897e-39
1.4686314 0.8481403 -0.064272642 6.8224766e-39
1.4686371 0.8442775 -0.064272642 7.0983446e-39
1.477779 0.84523964 -0.073535562 6.268584e-39
1.4777849 0.84135395 -0.073535562 6.3607698e-39
1.4686543 0.83268899 -0.064272642 6.7295523e-39
1.4777964 0.83358252 -0.073535562 6.8213976e-39
1.4778022 0.82969683 -0.073535562 6.9135932e-39
1.477808 0.82581115 -0.073535562 6.730281e-39
1.4686773 0.81723756 -0.064272642 6.8224766e-39
1.4686831 0.8133747 -0.064272642 6.9146722e-39
1.4686888 0.80951184 -0.064272642 6.9146722e-39
1.4686946 0.80564898 -0.064272642 6.8235584e-39
1.4595636 0.79718965 -0.055009723 7.1923409e-39
1.468706 0.79792327 -0.064272642 7.1923381e-39
1.4595751 0.78950971 -0.055009723 6.6391643e-39
1.4595808 0.78566968 -0.055009723 6.5473345e-39
1.4595865 0.78182971 -0.055009723 6.7317257e-39
1.4595922 0.77798969 -0.055009723 7.0990635e-39
1.4595979 0.77414972 -0.055009723 6.9146722e-39
1.4596037 0.77030969 -0.055009723 6.0849116e-39
1.4512341 0.76242393 -0.046518683 3.5034339e-39
1.4053565 0.93764353 -0.005171895 6.1771072e-39
1.4144882 0.93953711 -0.014455914 6.6380854e-39
1.4144937 0.93580568 -0.014455914 6.6377322e-39
1.4144993 0.93207425 -0.014455914 6.5455366e-39
1.4145049 0.92834282 -0.014455914 6.5458897e-39
1.4228762 0.929663 -0.022966385 6.4536941e-39
1.4228817 0.92591059 -0.022966385 6.729202e-39
1.4228873 0.92215824 -0.022966385 6.8213976e-39
1.4403852 0.92883658 -0.040760756 6.729202e-39
1.4403909 0.92504042 -0.040760756 6.6370064e-39
1.449523 0.92664057 -0.050044775 6.3614985e-39
1.4495287 0.92282152 -0.050044775 6.5458897e-39
1.4495343 0.91900247 -0.050044775 6.6377322e-39
1.44954 0.91518342 -0.050044775 6.5455366e-39
1.4495457 0.91136438 -0.050044775 6.5458897e-39
1.4579173 0.91238737 -0.058555007 6.5458897e-39
1.4495571 0.90372628 -0.050044775 6.6370064e-39
1.4495627 0.89990723 -0.050044775 6.729202e-39
1.4495684 0.89608818 -0.050044775 6.914647e-39
1.4495741 0.89226919 -0.050044775 6.914647e-39
1.4495797 0.88845015 -0.050044775 7.0068581e-39
1.4495854 0.8846311 -0.050044775 6.8224668e-39
1.449591 0.88081205 -0.050044775 6.3611453e-39
1.4495968 0.87699306 -0.050044775 5.439189e-39
1.4496025 0.87317401 -0.050044775 5.6228768e-39
1.4496082 0.86935496 -0.050044775 5.6228768e-39
1.4579802 0.87014747 -0.058555007 5.6225293e-39
1.4579859 0.86630744 -0.058555007 5.4381381e-39
1.4579916 0.86246747 -0.058555007 6.8217479e-39
1.4579973 0.85862744 -0.058555007 6.8217479e-39
1.4671303 0.85972667 -0.067839026 6.8213948e-39
1.467136 0.85586381 -0.067839026 6.8213948e-39
1.4671417 0.85200095 -0.067839026 6.8217479e-39
1.4671475 0.84813809 -0.067839026 7.0983348e-39
1.4671533 0.8442753 -0.067839026 7.0068581e-39
1.467159 0.8404125 -0.067839026 5.9005105e-39
1.4671648 0.83654964 -0.067839026 5.8083247e-39
1.4671705 0.83268678 -0.067839026 6.5458897e-39
1.4671762 0.82882392 -0.067839026 7.0072182e-39
1.467182 0.82496107 -0.067839026 7.0072182e-39
1.4671878 0.82109821 -0.067839026 6.9146722e-39
1.4671935 0.81723535 -0.067839026 6.9146722e-39
1.4580715 0.80870754 -0.058555007 6.8221235e-39
1.4580772 0.80486751 -0.058555007 6.5455366e-39
1.4580829 0.80102754 -0.058555007 6.9146722e-39
1.4580886 0.79718751 -0.058555007 7.467846e-39
1.4580944 0.79334748 -0.058555007 7.4685523e-39
1.4581 0.78950757 -0.058555007 7.0075741e-39
1.4581057 0.78566754 -0.058555007 6.914675e-39
1.4581114 0.78182757 -0.058555007 7.0068707e-39
1.4581171 0.77798754 -0.058555007 7.0990537e-39
1.4581228 0.77414757 -0.058555007 6.3614887e-39
1.4581286 0.77030754 -0.058555007 5.9015895e-39
1.4581343 0.76646757 -0.058555007 3.5966988e-39
1.3955579 0.94354808 -6.6280365e-05 5.9927159e-39
1.3955634 0.93986046 -6.6280365e-05 5.9927159e-39
1.4039264 0.94135004 -0.0085960627 6.1771072e-39
1.403932 0.93764144 -0.0085960627 6.4547633e-39
1.4130548 0.93953496 -0.017901063 6.4547633e-39
1.4130603 0.93580353 -0.017901063 6.730281e-39
1.4214237 0.93716562 -0.026430845 6.5458897e-39
1.4130715 0.92834067 -0.017901063 6.729202e-39
1.4214348 0.92966086 -0.026430845 6.729202e-39
1.4214404 0.92590845 -0.026430845 6.6366532e-39
1.421446 0.9221561 -0.026430845 6.6366532e-39
1.4298092 0.9233923 -0.034960508 6.6366532e-39
1.4389327 0.92503822 -0.044265628 6.452262e-39
1.448056 0.92663842 -0.053570867 6.3614985e-39
1.4480617 0.92281938 -0.053570867 6.6380854e-39
1.4480673 0.91900033 -0.053570867 6.7299307e-39
1.448073 0.91518128 -0.053570867 6.5455394e-39
1.4480788 0.91136223 -0.053570867 6.5458897e-39
1.4480844 0.90754318 -0.053570867 6.2693028e-39
1.4480901 0.90372413 -0.053570867 5.7150501e-39
1.4389778 0.8946687 -0.044265628 6.4526151e-39
1.4389834 0.89087254 -0.044265628 7.0050532e-39
1.4481071 0.89226705 -0.053570867 7.3738357e-39
1.4481127 0.888448 -0.053570867 7.2827359e-39
1.4481184 0.88462895 -0.053570867 6.4529752e-39
1.4481241 0.8808099 -0.053570867 6.1756751e-39
1.4481298 0.87699091 -0.053570867 5.8068926e-39
1.4481355 0.87317187 -0.053570867 5.3469934e-39
1.4481411 0.86935282 -0.053570867 4.9782109e-39
1.4565052 0.87014526 -0.06210041 5.6228768e-39
1.4565108 0.86630523 -0.06210041 5.8994637e-39
1.4656349 0.86745018 -0.07140553 6.729202e-39
1.4656407 0.86358732 -0.07140553 6.6370064e-39
1.4656464 0.85972446 -0.07140553 6.6366532e-39
1.4656522 0.8558616 -0.07140553 6.6366532e-39
1.4656579 0.85199875 -0.07140553 6.6373567e-39
1.456545 0.84326524 -0.06210041 6.7295523e-39
1.4565507 0.83942533 -0.06210041 6.6373791e-39
1.4565564 0.8355853 -0.06210041 5.8076184e-39
1.4565622 0.83174533 -0.06210041 5.3473465e-39
1.4565679 0.8279053 -0.06210041 7.0068679e-39
1.4565736 0.82406533 -0.06210041 7.0068679e-39
1.4565793 0.8202253 -0.06210041 7.0068679e-39
1.456585 0.81638533 -0.06210041 7.0068679e-39
1.4565908 0.8125453 -0.06210041 6.9146722e-39
1.4565965 0.80870533 -0.06210041 6.9132429e-39
1.4566021 0.8048653 -0.06210041 6.636656e-39
1.4566078 0.80102533 -0.06210041 6.6366532e-39
1.4566135 0.7971853 -0.06210041 7.6508052e-39
1.4566193 0.79334527 -0.06210041 7.7444329e-39
1.456625 0.78950536 -0.06210041 6.9146722e-39
1.4566306 0.78566533 -0.06210041 6.6380854e-39
1.4566363 0.78182536 -0.06210041 7.0990635e-39
1.456642 0.77798533 -0.06210041 7.1912591e-39
1.465767 0.77860463 -0.07140553 6.2693028e-39
