# .PCD v0.7 - Point Cloud Data file format
VERSION 0.7
FIELDS x y z rgb
SIZE 4 4 4 4
TYPE F F F F
COUNT 1 1 1 1
WIDTH 998
HEIGHT 1
VIEWPOINT 0 0 0 1 0 0 0
POINTS 998
DATA ascii
1.8481829 0.93057477 -0.014527678 8.3908813e-39
1.8347081 0.91993809 -0.0041165352 8.5734873e-39
1.8332213 1.0251244 -0.0082960129 7.744786e-39
1.8332632 0.99882734 -0.0082960129 8.0221016e-39
1.8332702 0.99444449 -0.0082960129 8.0221016e-39
1.8332911 0.98129594 -0.0082960129 8.2061397e-39
1.8332981 0.97691309 -0.0082960129 8.390531e-39
1.8467771 0.9791193 -0.018736362 8.2065223e-39
1.8467841 0.97470593 -0.018736362 7.9299354e-39
1.8467911 0.97029263 -0.018736362 8.4830769e-39
1.8602703 0.97237688 -0.029176474 8.2064901e-39
1.8602773 0.96793306 -0.029176474 7.9313451e-39
1.8602843 0.96348923 -0.029176474 7.7469538e-39
1.8602914 0.95904547 -0.029176474 8.2064901e-39
1.8468263 0.94822603 -0.018736362 8.3908813e-39
1.8468333 0.94381267 -0.018736362 8.6681745e-39
1.8468403 0.93939936 -0.018736362 8.7603701e-39
1.8468474 0.934986 -0.018736362 8.760017e-39
1.8333818 0.92431885 -0.0082960129 8.4834301e-39
1.8333887 0.919936 -0.0082960129 8.5741964e-39
1.8333956 0.91555315 -0.0082960129 9.0351745e-39
1.8334026 0.91117024 -0.0082960129 8.9429761e-39
1.8192669 1.0273108 -0.0026606321 7.7451644e-39
1.8192738 1.0229565 -0.0026606321 7.5607731e-39
1.8319019 1.0251224 -0.012475491 7.8359125e-39
1.8192877 1.0142479 -0.0026606321 8.0203037e-39
1.8192947 1.0098937 -0.0026606321 8.2046922e-39
1.8193016 1.0055394 -0.0026606321 7.8359097e-39
1.8193085 1.0011852 -0.0026606321 7.7455147e-39
1.8193154 0.99683082 -0.0026606321 7.929906e-39
1.8193223 0.99247652 -0.0026606321 8.0220988e-39
1.8193293 0.98812228 -0.0026606321 8.0220988e-39
1.8193362 0.98376799 -0.0026606321 8.2054111e-39
1.8193432 0.97941369 -0.0026606321 8.2054111e-39
1.8193501 0.97505939 -0.0026606321 8.0217485e-39
1.8319787 0.97691101 -0.012475491 8.1139441e-39
1.8454486 0.97911716 -0.022944927 8.2983382e-39
1.8319926 0.96814525 -0.012475491 8.2983382e-39
1.8193778 0.95764226 -0.0026606321 8.3908841e-39
1.8454696 0.96587712 -0.022944927 8.2986885e-39
1.8589395 0.96793091 -0.033414125 8.0235379e-39
1.8454837 0.9570505 -0.022944927 7.746951e-39
1.8454907 0.9526372 -0.022944927 8.2068432e-39
1.8454977 0.94822389 -0.022944927 8.4834301e-39
1.8455048 0.94381052 -0.022944927 8.5752754e-39
1.8455118 0.93939722 -0.022944927 8.667471e-39
1.8455188 0.93498385 -0.022944927 8.8511336e-39
1.8320624 0.92431676 -0.012475491 8.4823511e-39
1.8320693 0.91993392 -0.012475491 8.8489826e-39
1.819454 0.90974516 -0.0026606321 9.3099608e-39
1.8179561 1.0273088 -0.0068130493 7.9284963e-39
1.817963 1.0229545 -0.0068130493 7.5597137e-39
1.8179699 1.0186001 -0.0068130493 7.5607703e-39
1.8179768 1.0142459 -0.0068130493 7.5607703e-39
1.8180115 0.99247444 -0.0068130493 8.2061173e-39
1.8180462 0.97070301 -0.0068130493 8.0221016e-39
1.8180531 0.96634877 -0.0068130493 8.0217485e-39
1.818067 0.95764017 -0.0068130493 8.3908813e-39
1.8180739 0.95328593 -0.0068130493 8.3908813e-39
1.844148 0.96146172 -0.027153492 8.2064901e-39
1.8441551 0.95704842 -0.027153492 8.2064901e-39
1.8441621 0.95263511 -0.027153492 8.2064901e-39
1.8441691 0.9482218 -0.027153492 8.4830769e-39
1.8441762 0.94380844 -0.027153492 8.9437048e-39
1.8441831 0.93939513 -0.027153492 8.7593135e-39
1.8441902 0.93498176 -0.027153492 8.7592911e-39
1.830743 0.92431462 -0.016655207 8.4827042e-39
1.8307499 0.91993177 -0.016655207 8.3898023e-39
1.8307568 0.91554892 -0.016655207 8.5741936e-39
1.8040557 1.0120779 -0.0010957718 7.1015844e-39
1.8040626 1.0077523 -0.0010957718 7.1937801e-39
1.8040695 1.0034266 -0.0010957718 7.5603948e-39
1.8040763 0.99910086 -0.0010957718 7.5603948e-39
1.8040832 0.99477518 -0.0010957718 7.7444329e-39
1.8040901 0.99044943 -0.0010957718 7.9288242e-39
1.8167007 0.99247235 -0.010965347 8.3901554e-39
1.8041039 0.98179799 -0.0010957718 8.3901554e-39
1.8041108 0.97747231 -0.0010957718 8.2983129e-39
1.8041245 0.96882087 -0.0010957718 8.5752754e-39
1.8041314 0.96449512 -0.0010957718 8.2986885e-39
1.8167423 0.96634668 -0.010965347 8.1142972e-39
1.8041452 0.95584381 -0.0010957718 8.3908841e-39
1.804152 0.95151806 -0.0010957718 8.5749251e-39
1.8041589 0.94719237 -0.0010957718 8.4827294e-39
1.81677 0.94892961 -0.010965347 8.2986857e-39
1.8293816 0.95060968 -0.020834684 8.2986857e-39
1.8428335 0.95263296 -0.031362057 8.3912344e-39
1.8428406 0.94821966 -0.031362057 8.5756257e-39
1.8428476 0.94380629 -0.031362057 8.9429789e-39
1.8428546 0.93939298 -0.031362057 8.8507833e-39
1.8428617 0.93497962 -0.031362057 8.6670955e-39
1.8294235 0.92431253 -0.020834684 8.4827042e-39
1.8294305 0.91992968 -0.020834684 8.2986885e-39
1.8294374 0.91554683 -0.020834684 8.2064929e-39
1.8294444 0.91116393 -0.020834684 7.9316982e-39
1.8027604 1.0077503 -0.00522089 7.4689278e-39
1.8027948 0.98612171 -0.00522089 8.2061173e-39
1.8028085 0.97747028 -0.00522089 8.2990388e-39
1.8028154 0.97314453 -0.00522089 8.2990388e-39
1.8028224 0.96881884 -0.00522089 8.3001276e-39
1.8028291 0.9644931 -0.00522089 8.1157364e-39
1.8154315 0.96634459 -0.015117526 8.2986857e-39
1.802843 0.95584178 -0.00522089 8.4830769e-39
1.8028499 0.95151603 -0.00522089 8.8508085e-39
1.8028567 0.94719034 -0.00522089 8.5742216e-39
1.8154593 0.94892752 -0.015117526 8.3908841e-39
1.8154662 0.94457322 -0.015117526 8.2986885e-39
1.8280692 0.94622475 -0.025014162 8.2990388e-39
1.8280762 0.94184184 -0.025014162 8.3912344e-39
1.8280832 0.93745899 -0.025014162 8.4834301e-39
1.841526 0.9393909 -0.035570741 7.745865e-39
1.802905 0.91691035 -0.00522089 7.6533163e-39
1.8281041 0.92431045 -0.025014162 8.2064901e-39
1.8281111 0.9199276 -0.025014162 8.2986885e-39
1.828118 0.91554475 -0.025014162 8.2064929e-39
1.8155285 0.90538472 -0.015117526 8.1157336e-39
1.801527 0.96449101 -0.0093460083 7.930992e-39
1.8015339 0.96016532 -0.0093460083 8.2064901e-39
1.8015407 0.95583969 -0.0093460083 8.3908813e-39
1.8015476 0.95151395 -0.0093460083 8.8493708e-39
1.8015546 0.94718826 -0.0093460083 8.7571751e-39
1.8015615 0.94286251 -0.0093460083 8.4827266e-39
1.8141553 0.94457114 -0.019269824 8.2983354e-39
1.8015752 0.93421108 -0.0093460083 8.0228051e-39
1.8267568 0.94183975 -0.029193759 8.2071963e-39
1.8267637 0.93745691 -0.029193759 8.4834301e-39
1.8267707 0.93307406 -0.029193759 7.6536694e-39
1.8016027 0.91690826 -0.0093460083 7.5603948e-39
1.8141969 0.91844541 -0.019269824 8.4823511e-39
1.8142039 0.91409111 -0.019269824 8.3905338e-39
1.8267986 0.91554266 -0.029193759 8.3905338e-39
1.8142177 0.90538263 -0.019269824 8.9444082e-39
1.7875094 1.0442261 -0.0035198927 7.2845338e-39
1.7875162 1.0399289 -0.0035198927 8.2071963e-39
1.7875232 1.0356318 -0.0035198927 8.2071963e-39
1.7875299 1.0313346 -0.0035198927 8.1142944e-39
1.7875367 1.0270375 -0.0035198927 7.6533163e-39
1.7875437 1.0227404 -0.0035198927 7.5611206e-39
1.7875504 1.0184432 -0.0035198927 7.7455119e-39
1.7875572 1.0141461 -0.0035198927 7.928827e-39
1.7875777 1.0012547 -0.0035198927 8.0224519e-39
1.7875847 0.99695748 -0.0035198927 8.0228051e-39
1.7875915 0.99266034 -0.0035198927 7.7462182e-39
1.7875983 0.98836321 -0.0035198927 7.4703642e-39
1.787612 0.97976893 -0.0035198927 7.9299032e-39
1.7876188 0.97547179 -0.0035198927 8.0220988e-39
1.7876257 0.97117466 -0.0035198927 8.2976095e-39
1.7876325 0.96687752 -0.0035198927 8.3898051e-39
1.7876393 0.96258032 -0.0035198927 8.2064901e-39
1.8002248 0.96448892 -0.013471127 7.3767294e-39
1.8002317 0.96016324 -0.013471127 7.4692781e-39
1.8002386 0.95583761 -0.013471127 7.6536694e-39
1.8002454 0.95151186 -0.013471127 7.7451644e-39
1.8002523 0.94718617 -0.013471127 7.6529688e-39
1.8002592 0.94286042 -0.013471127 7.7451644e-39
1.8002661 0.93853474 -0.013471127 7.099795e-39
1.8002729 0.93420899 -0.013471127 7.2845338e-39
1.8128583 0.93586046 -0.023422122 8.2064901e-39
1.8128653 0.93150616 -0.023422122 8.2986857e-39
1.8002936 0.92123187 -0.013471127 8.3908813e-39
1.8003005 0.91690618 -0.013471127 8.8525657e-39
1.8003074 0.91258043 -0.013471127 9.2213482e-39
1.8003143 0.9082548 -0.013471127 8.9444433e-39
1.8128999 0.90973473 -0.023422122 8.4834651e-39
1.800328 0.89960337 -0.013471127 8.7603701e-39
1.8003349 0.89527762 -0.013471127 8.9447614e-39
1.7862158 1.044224 -0.007617712 7.746951e-39
1.7862227 1.0399269 -0.007617712 8.1146476e-39
1.7862363 1.0313326 -0.007617712 7.6544051e-39
1.7862432 1.0270355 -0.007617712 7.4700138e-39
1.7862705 1.0098468 -0.007617712 7.9284738e-39
1.7862774 1.0055497 -0.007617712 7.8369817e-39
1.7862842 1.0012525 -0.007617712 8.2057642e-39
1.786291 0.99695539 -0.007617712 8.1142972e-39
1.7862979 0.99265826 -0.007617712 7.7455147e-39
1.7863047 0.98836112 -0.007617712 7.2856226e-39
1.7863115 0.98406398 -0.007617712 7.1934269e-39
1.7863184 0.97976685 -0.007617712 7.4703642e-39
1.7863252 0.97546971 -0.007617712 7.6547554e-39
1.786332 0.97117257 -0.007617712 8.1128651e-39
1.7863389 0.96687543 -0.007617712 8.4816476e-39
1.7863457 0.96257824 -0.007617712 8.5741964e-39
1.7989227 0.96448684 -0.017596006 7.5600445e-39
1.7989295 0.96016115 -0.017596006 7.3767322e-39
1.7989364 0.95583552 -0.017596006 7.7455147e-39
1.7989432 0.95150977 -0.017596006 7.4700138e-39
1.7989501 0.94718409 -0.017596006 7.2856226e-39
1.798957 0.94285834 -0.017596006 7.9295528e-39
1.7989639 0.93853265 -0.017596006 7.3763791e-39
1.7864004 0.9282012 -0.007617712 7.560029e-39
1.7989776 0.92988122 -0.017596006 8.4819853e-39
1.7989845 0.92555547 -0.017596006 8.5745467e-39
1.7864209 0.91530973 -0.007617712 8.6667423e-39
1.7864277 0.91101259 -0.007617712 8.9440551e-39
1.7990052 0.91257834 -0.017596006 8.8518595e-39
1.7990121 0.90825272 -0.017596006 8.6682095e-39
1.799019 0.90392697 -0.017596006 8.4838182e-39
1.7990258 0.89960128 -0.017596006 8.760017e-39
1.7990327 0.89527553 -0.017596006 8.9444082e-39
1.7990396 0.89094985 -0.017596006 8.6674682e-39
1.7723621 1.0374448 -0.0017098188 8.1146476e-39
1.784929 1.0399247 -0.011715412 8.2068432e-39
1.7723757 1.0289077 -0.0017098188 8.2068432e-39
1.7723826 1.0246391 -0.0017098188 8.0231904e-39
1.7723893 1.0203705 -0.0017098188 7.6544079e-39
1.7723961 1.016102 -0.0017098188 7.8373572e-39
1.7724029 1.0118334 -0.0017098188 8.0217485e-39
1.7724097 1.0075648 -0.0017098188 8.0217513e-39
1.7724165 1.0032963 -0.0017098188 7.3763819e-39
1.7849838 1.0055476 -0.011715412 7.5614738e-39
1.7849905 1.0012505 -0.011715412 8.3912344e-39
1.7849973 0.99695337 -0.011715412 8.3908841e-39
1.7850043 0.99265623 -0.011715412 7.6533191e-39
1.7850111 0.98835909 -0.011715412 7.2856226e-39
1.7724572 0.97768486 -0.0017098188 7.1934269e-39
1.7850248 0.97976482 -0.011715412 7.5625626e-39
1.7850316 0.97546768 -0.011715412 7.7469538e-39
1.7850385 0.97117054 -0.011715412 8.1139441e-39
1.7850453 0.96687341 -0.011715412 7.8373572e-39
1.7850522 0.96257621 -0.011715412 7.928827e-39
1.7976204 0.96448481 -0.021721125 7.6522401e-39
1.7976273 0.96015912 -0.021721125 7.5607731e-39
1.7976341 0.95583349 -0.021721125 7.83736e-39
1.797641 0.95150775 -0.021721125 8.2064901e-39
1.7976478 0.94718206 -0.021721125 8.2064901e-39
1.7976547 0.94285631 -0.021721125 8.3908841e-39
1.7976617 0.93853062 -0.021721125 8.3908841e-39
1.7851068 0.92819917 -0.011715412 8.4834301e-39
1.7851137 0.92390203 -0.011715412 9.0366039e-39
1.7976823 0.92555344 -0.021721125 8.5756257e-39
1.7851273 0.9153077 -0.011715412 8.4834301e-39
1.7976961 0.91690207 -0.021721125 8.3908841e-39
1.7977029 0.91257632 -0.021721125 7.4689278e-39
1.7851478 0.90241635 -0.011715412 8.390531e-39
1.7977167 0.90392494 -0.021721125 8.390531e-39
1.7977237 0.89959925 -0.021721125 8.8514839e-39
1.7977304 0.89527351 -0.021721125 8.574897e-39
1.7977374 0.89094782 -0.021721125 8.2064901e-39
1.7836286 1.0442199 -0.015813351 8.0221016e-39
1.771084 1.0331742 -0.0057804585 7.8391495e-39
1.7710907 1.0289055 -0.0057804585 7.7469538e-39
1.7710975 1.0246371 -0.0057804585 7.8387963e-39
1.7711043 1.0203685 -0.0057804585 7.6544051e-39
1.7711111 1.0160999 -0.0057804585 7.2856226e-39
1.7711179 1.0118314 -0.0057804585 7.5622095e-39
1.7711247 1.0075628 -0.0057804585 8.2997773e-39
1.7711315 1.0032942 -0.0057804585 7.2856254e-39
1.7711383 0.9990257 -0.0057804585 7.9291773e-39
1.7711451 0.99475712 -0.0057804585 8.3901554e-39
1.7711519 0.99048853 -0.0057804585 8.3898023e-39
1.7837106 0.99265414 -0.015813351 8.1132154e-39
1.7711655 0.98195142 -0.0057804585 7.9299032e-39
1.7711722 0.97768283 -0.0057804585 7.8377075e-39
1.7711791 0.97341424 -0.0057804585 7.4703642e-39
1.7711858 0.96914566 -0.0057804585 7.6547554e-39
1.7711927 0.96487713 -0.0057804585 8.0221016e-39
1.7711993 0.96060854 -0.0057804585 7.7455147e-39
1.7712061 0.95634001 -0.0057804585 7.928827e-39
1.7837653 0.95827699 -0.015813351 7.928827e-39
1.7837721 0.95397991 -0.015813351 7.9284738e-39
1.796332 0.95583141 -0.025846243 8.389452e-39
1.7963388 0.95150566 -0.025846243 8.8518623e-39
1.7963457 0.94717997 -0.025846243 8.7596666e-39
1.7837995 0.93679136 -0.015813351 8.3001248e-39
1.7838063 0.93249422 -0.015813351 8.3923205e-39
1.7838132 0.92819709 -0.015813351 8.4845189e-39
1.78382 0.92389995 -0.015813351 8.6689101e-39
1.7838268 0.91960275 -0.015813351 8.3926764e-39
1.7838337 0.91530561 -0.015813351 8.2082851e-39
1.7838405 0.91100848 -0.015813351 8.5749251e-39
1.7838475 0.9067114 -0.015813351 8.3905338e-39
1.7838542 0.90241426 -0.015813351 8.6660389e-39
1.783861 0.89811713 -0.015813351 8.6660389e-39
1.783868 0.89381999 -0.015813351 9.2191972e-39
1.7838748 0.88952285 -0.015813351 9.034806e-39
1.7964352 0.89094573 -0.025846243 8.0221016e-39
1.796442 0.88661999 -0.025846243 4.7030589e-39
1.782335 1.0442178 -0.019911051 7.7451644e-39
1.769799 1.0331721 -0.0098509789 7.8377103e-39
1.7698058 1.0289035 -0.0098509789 7.5611235e-39
1.7698126 1.0246351 -0.0098509789 7.1937773e-39
1.7698194 1.0203664 -0.0098509789 7.1015816e-39
1.7698261 1.0160979 -0.0098509789 7.2856226e-39
1.7698532 0.99902368 -0.0098509789 8.0210198e-39
1.7698601 0.99475509 -0.0098509789 8.2054111e-39
1.7698668 0.9904865 -0.0098509789 8.0224519e-39
1.7698736 0.98621792 -0.0098509789 8.0224519e-39
1.7698804 0.98194939 -0.0098509789 8.0228051e-39
1.7698872 0.9776808 -0.0098509789 7.7462182e-39
1.769894 0.97341222 -0.0098509789 7.745865e-39
1.7699008 0.96914363 -0.0098509789 7.745865e-39
1.7699076 0.9648751 -0.0098509789 7.3781685e-39
1.7699144 0.96060652 -0.0098509789 7.2859729e-39
1.7699212 0.95633799 -0.0098509789 7.6533191e-39
1.7824718 0.95827496 -0.019911051 7.929906e-39
1.7824786 0.95397788 -0.019911051 8.1139441e-39
1.7824854 0.94968075 -0.019911051 8.5749223e-39
1.7824923 0.94538361 -0.019911051 8.8518595e-39
1.7824991 0.94108647 -0.019911051 8.8518595e-39
1.7825059 0.93678933 -0.019911051 8.667471e-39
1.7825128 0.9324922 -0.019911051 8.9440579e-39
1.7825196 0.92819506 -0.019911051 9.1280988e-39
1.7825264 0.92389792 -0.019911051 9.1280988e-39
1.7825333 0.91960073 -0.019911051 8.8518595e-39
1.7825401 0.91530359 -0.019911051 8.6674682e-39
1.7825469 0.91100645 -0.019911051 8.6678564e-39
1.7825538 0.90670937 -0.019911051 8.4834651e-39
1.7825606 0.90241224 -0.019911051 8.390531e-39
1.7825674 0.8981151 -0.019911051 8.2061397e-39
1.7825743 0.89381796 -0.019911051 8.6667423e-39
1.7825811 0.88952082 -0.019911051 9.0355249e-39
1.7825879 0.88522369 -0.019911051 8.207932e-39
1.7825948 0.88092655 -0.019911051 4.9810849e-39
1.7685071 1.0374386 -0.013921499 7.8373572e-39
1.7685139 1.0331701 -0.013921499 7.7455147e-39
1.7685207 1.0289015 -0.013921499 7.5611235e-39
1.7685275 1.0246329 -0.013921499 7.4689278e-39
1.7685343 1.0203644 -0.013921499 7.4689278e-39
1.7685411 1.0160959 -0.013921499 7.5607703e-39
1.7560197 1.0009816 -0.0038340092 7.8366313e-39
1.7560264 0.99674159 -0.0038340092 7.928827e-39
1.7560332 0.99250162 -0.0038340092 8.1132154e-39
1.7560399 0.98826158 -0.0038340092 8.1132154e-39
1.7560467 0.9840216 -0.0038340092 7.9302563e-39
1.7685887 0.98621583 -0.013921499 8.0224519e-39
1.7685955 0.9819473 -0.013921499 8.2071963e-39
1.7686023 0.97767872 -0.013921499 7.6540225e-39
1.768609 0.97341013 -0.013921499 7.468925e-39
1.7686158 0.96914154 -0.013921499 7.468925e-39
1.7686226 0.96487302 -0.013921499 6.917912e-39
1.7686294 0.96060443 -0.013921499 7.0101077e-39
1.7561005 0.95010167 -0.0038340092 7.1941304e-39
1.7811781 0.95827287 -0.02400887 7.8394998e-39
1.781185 0.9539758 -0.02400887 8.1157364e-39
1.7811918 0.94967866 -0.02400887 8.7611058e-39
1.7937344 0.95150149 -0.034096241 9.1284464e-39
1.7812055 0.94108438 -0.02400887 8.7596638e-39
1.7812123 0.93678725 -0.02400887 8.8511336e-39
1.7812191 0.93249011 -0.02400887 9.0355249e-39
1.781226 0.92819297 -0.02400887 9.6805439e-39
1.7937688 0.92987293 -0.034096241 9.3117614e-39
1.7812396 0.91959864 -0.02400887 9.0362535e-39
1.7812465 0.9153015 -0.02400887 8.667471e-39
1.7812533 0.91100436 -0.02400887 8.760052e-39
1.7812601 0.90670729 -0.02400887 8.2990738e-39
1.781267 0.90241015 -0.02400887 8.2986885e-39
1.7812738 0.89811301 -0.02400887 8.1142972e-39
1.7812806 0.89381588 -0.02400887 8.0220988e-39
1.7812876 0.88951874 -0.02400887 8.7596638e-39
1.7812943 0.8852216 -0.02400887 8.5770803e-39
1.7813011 0.88092446 -0.02400887 5.5346245e-39
1.7672154 1.0417053 -0.01799202 8.0210226e-39
1.7672222 1.0374366 -0.01799202 7.928827e-39
1.767229 1.0331681 -0.01799202 7.9288242e-39
1.7547095 1.0221795 -0.0078773499 7.9288242e-39
1.7672426 1.0246309 -0.01799202 7.7455147e-39
1.7672493 1.0203624 -0.01799202 7.6533191e-39
1.7547297 1.0094595 -0.0078773499 7.6533191e-39
1.7547635 0.98825955 -0.0078773499 8.2050453e-39
1.754777 0.97977954 -0.0078773499 7.5614738e-39
1.7673105 0.98194528 -0.01799202 7.4696285e-39
1.7673172 0.97767669 -0.01799202 7.4696285e-39
1.7673241 0.9734081 -0.01799202 6.7317453e-39
1.754804 0.96281958 -0.0078773499 6.1785716e-39
1.7548107 0.95857954 -0.0078773499 7.4689278e-39
1.7548175 0.95433962 -0.0078773499 7.5611235e-39
1.7673579 0.95206529 -0.01799202 7.9320486e-39
1.7798914 0.95397377 -0.028106689 8.5756257e-39
1.7798983 0.94967663 -0.028106689 9.3131907e-39
1.7799051 0.9453795 -0.028106689 9.1287995e-39
1.7799119 0.94108236 -0.028106689 8.760017e-39
1.7799188 0.93678522 -0.028106689 8.6678213e-39
1.7799256 0.93248808 -0.028106689 8.6678213e-39
1.7799324 0.92819095 -0.028106689 8.8511336e-39
1.7924666 0.9298709 -0.038221359 8.6667423e-39
1.7799461 0.91959661 -0.028106689 8.4827266e-39
1.7674259 0.9093796 -0.01799202 8.0217485e-39
1.7799598 0.91100234 -0.028106689 7.9309948e-39
1.7799666 0.90670526 -0.028106689 7.4700166e-39
1.7799734 0.90240812 -0.028106689 7.8369817e-39
1.7799803 0.89811099 -0.028106689 7.6525904e-39
1.7799871 0.89381385 -0.028106689 7.7451616e-39
1.7799939 0.88951671 -0.028106689 8.2061397e-39
1.7800008 0.88521957 -0.028106689 8.5770648e-39
1.7800076 0.88092244 -0.028106689 7.0097391e-39
1.7659303 1.0417032 -0.02206254 7.9281081e-39
1.7659372 1.0374346 -0.02206254 7.8359125e-39
1.7534264 1.0264175 -0.011920691 7.743714e-39
1.7534331 1.0221775 -0.011920691 8.0203009e-39
1.7534399 1.0179375 -0.011920691 8.7578786e-39
1.7534466 1.0136975 -0.011920691 8.0203135e-39
1.7417839 0.99483895 -0.0024549961 8.9422572e-39
1.7417905 0.99062562 -0.0024549961 8.6656703e-39
1.7417972 0.98641229 -0.0024549961 8.2968878e-39
1.7418039 0.98219895 -0.0024549961 8.2046922e-39
1.7418107 0.97798562 -0.0024549961 7.8377075e-39
1.7535006 0.97977751 -0.011920691 7.468925e-39
1.7660254 0.98194325 -0.02206254 7.3788748e-39
1.7660322 0.97767466 -0.02206254 7.2866791e-39
1.7535208 0.96705753 -0.011920691 7.0987132e-39
1.7535275 0.96281755 -0.011920691 7.1909088e-39
1.7418509 0.95270568 -0.0024549961 8.0210198e-39
1.7418575 0.94849235 -0.0024549961 7.9288242e-39
1.7418643 0.94427902 -0.0024549961 7.9302563e-39
1.7535545 0.94585758 -0.011920691 8.1146476e-39
1.7660798 0.94779474 -0.02206254 8.4830769e-39
1.7660866 0.94352615 -0.02206254 8.4830769e-39
1.7786114 0.94537741 -0.032204509 8.0220988e-39
1.7786182 0.94108027 -0.032204509 8.3908813e-39
1.7786251 0.93678313 -0.032204509 9.0362535e-39
1.7786319 0.932486 -0.032204509 8.667471e-39
1.7786387 0.92818886 -0.032204509 8.5756257e-39
1.7911644 0.92986882 -0.042346478 8.4834301e-39
1.7786524 0.91959453 -0.032204509 8.2061397e-39
1.7661408 0.90937757 -0.02206254 8.0217485e-39
1.7786661 0.91100025 -0.032204509 8.0217485e-39
1.7786729 0.90670317 -0.032204509 7.7451616e-39
1.7786797 0.90240604 -0.032204509 7.9288242e-39
1.7786866 0.8981089 -0.032204509 8.0210198e-39
1.7786934 0.89381176 -0.032204509 7.8377103e-39
1.7787002 0.88951463 -0.032204509 8.1142972e-39
1.7787071 0.88521749 -0.032204509 8.6689073e-39
1.7646521 1.0374326 -0.02613318 7.8359223e-39
1.7521499 1.0264155 -0.015964031 7.5603948e-39
1.7521567 1.0221754 -0.015964031 7.6525904e-39
1.7404886 1.0116903 -0.006472826 7.9295556e-39
1.7404953 1.0074769 -0.006472826 7.1919906e-39
1.740549 0.97377032 -0.006472826 7.4689278e-39
1.7522309 0.97553551 -0.015964031 8.2983129e-39
1.7522377 0.97129554 -0.015964031 8.6670955e-39
1.740569 0.96113032 -0.006472826 8.5738433e-39
1.7405758 0.95691699 -0.006472826 8.389452e-39
1.7405825 0.95270371 -0.006472826 8.0220988e-39
1.7405891 0.94849038 -0.006472826 8.0220988e-39
1.7406026 0.94006371 -0.006472826 7.5607703e-39
1.7522849 0.94161558 -0.015964031 8.2068432e-39
1.7648015 0.94352406 -0.02613318 8.2068432e-39
1.7648083 0.93925548 -0.02613318 7.7469538e-39
1.7648151 0.93498689 -0.02613318 7.5625626e-39
1.7773315 0.93678111 -0.036302328 7.6544079e-39
1.7773384 0.93248397 -0.036302328 7.4700166e-39
1.7773452 0.92818683 -0.036302328 7.7455119e-39
1.777352 0.9238897 -0.036302328 8.2986857e-39
1.7648491 0.91364408 -0.02613318 8.390531e-39
1.7648559 0.90937549 -0.02613318 8.2983354e-39
1.7773725 0.91099823 -0.036302328 7.8387963e-39
1.7773794 0.90670115 -0.036302328 7.8387963e-39
1.7773862 0.90240401 -0.036302328 8.2054139e-39
1.777393 0.89810687 -0.036302328 8.2054139e-39
1.7773999 0.89380974 -0.036302328 8.0217513e-39
1.7774067 0.8895126 -0.036302328 8.1139469e-39
1.7633672 1.0374305 -0.0302037 7.5607703e-39
1.7508736 1.0264134 -0.020007372 7.1015844e-39
1.7392136 1.0159016 -0.010490656 7.1015844e-39
1.7275535 1.005443 -0.00097417831 7.5600641e-39
1.7275602 1.0012563 -0.00097417831 7.2834772e-39
1.7275667 0.99706966 -0.00097417831 7.467846e-39
1.7275734 0.99288297 -0.00097417831 7.9288242e-39
1.7275801 0.98869628 -0.00097417831 7.9295556e-39
1.7275867 0.98450965 -0.00097417831 7.9295556e-39
1.7275934 0.98032296 -0.00097417831 8.1142944e-39
1.7276001 0.97613627 -0.00097417831 8.1142944e-39
1.7276067 0.97194964 -0.00097417831 8.1142972e-39
1.7276133 0.96776295 -0.00097417831 7.8377103e-39
1.7392873 0.96955496 -0.010490656 8.2976067e-39
1.7392939 0.96534163 -0.010490656 8.6663892e-39
1.7276334 0.955203 -0.00097417831 8.6660389e-39
1.72764 0.95101637 -0.00097417831 8.2050607e-39
1.7276467 0.94682968 -0.00097417831 8.1142972e-39
1.7393208 0.94848835 -0.010490656 7.8377103e-39
1.7393275 0.94427502 -0.010490656 7.2845366e-39
1.7510017 0.94585353 -0.020007372 7.6533191e-39
1.7510085 0.94161355 -0.020007372 8.2986885e-39
1.7635165 0.94352204 -0.0302037 8.1142972e-39
1.7760242 0.9453733 -0.040400147 7.7469538e-39
1.776031 0.94107616 -0.040400147 7.5625626e-39
1.7760379 0.93677902 -0.040400147 7.4700138e-39
1.7760447 0.93248188 -0.040400147 7.5622095e-39
1.7760516 0.92818475 -0.040400147 7.745865e-39
1.7760584 0.92388761 -0.040400147 8.760017e-39
1.7635641 0.91364205 -0.0302037 8.6692633e-39
1.7635709 0.90937346 -0.0302037 7.9316982e-39
1.7760789 0.91099614 -0.040400147 8.4830797e-39
1.7760857 0.90669906 -0.040400147 8.1142972e-39
1.7760926 0.90240192 -0.040400147 8.1135686e-39
1.7760994 0.89810479 -0.040400147 8.2057642e-39
1.7761062 0.89380765 -0.040400147 8.2064929e-39
1.7761132 0.88951051 -0.040400147 8.2064929e-39
1.7379385 1.0201129 -0.014508605 7.1015844e-39
1.7379452 1.0158995 -0.014508605 7.1937801e-39
1.7262931 1.005441 -0.0049664974 7.5607731e-39
1.7262998 1.0012543 -0.0049664974 7.4685775e-39
1.7263064 0.99706769 -0.0049664974 7.6529688e-39
1.7263131 0.992881 -0.0049664974 8.2061425e-39
1.7263197 0.98869431 -0.0049664974 8.482026e-39
1.7263263 0.98450768 -0.0049664974 8.2976347e-39
1.726333 0.98032099 -0.0049664974 8.2986885e-39
1.7263397 0.9761343 -0.0049664974 8.3908841e-39
1.7263464 0.97194767 -0.0049664974 8.2990388e-39
1.726353 0.96776098 -0.0049664974 7.9302563e-39
1.7263597 0.96357435 -0.0049664974 8.0217485e-39
1.7263664 0.95938766 -0.0049664974 8.0217485e-39
1.7263731 0.95520103 -0.0049664974 7.8373572e-39
1.7263798 0.9510144 -0.0049664974 7.652966e-39
1.7263863 0.94682771 -0.0049664974 7.8377103e-39
1.7380525 0.94848633 -0.014508605 7.6533191e-39
1.7380592 0.94427299 -0.014508605 7.7455147e-39
1.7497253 0.9458515 -0.024050713 8.0221016e-39
1.7497321 0.94161153 -0.024050713 8.1139441e-39
1.7497388 0.93737149 -0.024050713 7.7451616e-39
1.7622384 0.93925142 -0.03427434 7.6547582e-39
1.7622451 0.93498284 -0.03427434 7.7469538e-39
1.7747443 0.936777 -0.044497967 7.7466007e-39
1.7747511 0.93247986 -0.044497967 7.6544051e-39
1.774758 0.92818272 -0.044497967 8.3908813e-39
1.7747648 0.92388558 -0.044497967 9.0362507e-39
1.749786 0.9076916 -0.024050713 8.4852223e-39
1.7622858 0.90937144 -0.03427434 7.3788748e-39
1.7747853 0.91099411 -0.044497967 8.4830797e-39
1.7747921 0.90669703 -0.044497967 8.7596666e-39
1.774799 0.9023999 -0.044497967 9.4968435e-39
1.7748058 0.89810276 -0.044497967 9.865626e-39
1.7748126 0.89380562 -0.044497967 9.6808943e-39
1.7748195 0.88950849 -0.044497967 9.1277205e-39
1.7250193 1.0138123 -0.0089590549 7.2845338e-39
1.725026 1.0096256 -0.0089590549 7.468925e-39
1.7250327 1.0054389 -0.0089590549 8.2061397e-39
1.7250394 1.0012523 -0.0089590549 7.7451616e-39
1.7250527 0.99287897 -0.0089590549 8.2983354e-39
1.7250594 0.98869228 -0.0089590549 8.0228401e-39
1.7250661 0.98450565 -0.0089590549 7.9306445e-39
1.7250727 0.98031896 -0.0089590549 8.2061397e-39
1.7250794 0.97613227 -0.0089590549 8.2983354e-39
1.725086 0.97194564 -0.0089590549 8.4830797e-39
1.7251259 0.94682568 -0.0089590549 7.8373572e-39
1.7367841 0.9484843 -0.018526554 7.7451616e-39
1.7367908 0.94427097 -0.018526554 8.2054111e-39
1.748449 0.94584948 -0.028094053 8.1132154e-39
1.7484556 0.9416095 -0.028094053 7.7455147e-39
1.7484624 0.93736947 -0.028094053 7.6533191e-39
1.7484691 0.93312949 -0.028094053 7.7455147e-39
1.7609601 0.93498081 -0.03834486 7.7455147e-39
1.7609669 0.93071228 -0.03834486 8.2061397e-39
1.7734575 0.93247777 -0.048595667 8.8515091e-39
1.7609805 0.92217511 -0.03834486 8.5774278e-39
1.7609873 0.91790652 -0.03834486 8.3930365e-39
1.7368578 0.9021377 -0.018526554 8.3008437e-39
1.7368644 0.89792436 -0.018526554 7.8398655e-39
1.7610077 0.90510088 -0.03834486 8.299427e-39
1.7610145 0.9008323 -0.03834486 8.4838182e-39
1.7610213 0.89656377 -0.03834486 1.0049326e-38
1.7735122 0.89810067 -0.048595667 9.9571308e-39
1.773519 0.89380354 -0.048595667 9.7734654e-39
1.7735258 0.8895064 -0.048595667 8.7593135e-39
1.7121162 1.0075117 -0.0033586025 6.7324488e-39
1.7121228 1.0033518 -0.0033586025 7.3778182e-39
1.7121295 0.99919182 -0.0033586025 7.9299032e-39
1.712136 0.99503177 -0.0033586025 7.7455119e-39
1.7121427 0.99087179 -0.0033586025 8.0217485e-39
1.7121493 0.9867118 -0.0033586025 8.6671179e-39
1.7237991 0.98869026 -0.012951493 8.2061397e-39
1.7238058 0.98450363 -0.012951493 8.1139441e-39
1.7238123 0.98031694 -0.012951493 7.9295556e-39
1.7121757 0.97007179 -0.0033586025 7.7451644e-39
1.7121824 0.96591181 -0.0033586025 8.3898051e-39
1.712189 0.96175182 -0.0033586025 9.403957e-39
1.7121956 0.95759177 -0.0033586025 8.7593163e-39
1.7122022 0.95343184 -0.0033586025 7.9295556e-39
1.7122089 0.94927186 -0.0033586025 8.0221016e-39
1.7122155 0.94511187 -0.0033586025 8.2986885e-39
1.7122221 0.94095182 -0.0033586025 8.0217485e-39
1.7238723 0.94263703 -0.012951493 7.8373572e-39
1.723879 0.93845034 -0.012951493 7.9299032e-39
1.7355291 0.94005561 -0.022544384 7.7455119e-39
1.7355357 0.93584228 -0.022544384 7.5614738e-39
1.7355424 0.93162894 -0.022544384 7.745865e-39
1.7355492 0.92741561 -0.022544384 7.8377103e-39
1.7355559 0.92320228 -0.022544384 7.7455147e-39
1.7355626 0.91898894 -0.022544384 8.4830797e-39
1.7355694 0.91477561 -0.022544384 9.7738186e-39
1.735576 0.91056228 -0.022544384 8.9447614e-39
1.7355827 0.906349 -0.022544384 8.4837832e-39
1.7355894 0.90213567 -0.022544384 8.2075789e-39
1.7239523 0.89239705 -0.012951493 8.2997745e-39
1.7356027 0.893709 -0.022544384 8.4831092e-39
1.7356095 0.88949567 -0.022544384 8.2065223e-39
1.7356162 0.88528234 -0.022544384 8.3898247e-39
1.7722186 0.89809865 -0.052693605 8.2054335e-39
1.7597498 0.88802451 -0.04241538 7.7466007e-39
1.7722323 0.88950437 -0.052693605 7.2856226e-39
1.7108705 1.0033498 -0.0073255301 7.6533163e-39
1.7108771 0.99918979 -0.0073255301 7.7455119e-39
1.7108837 0.99502975 -0.0073255301 7.7455119e-39
1.7108904 0.99086976 -0.0073255301 7.9288242e-39
1.710897 0.98670977 -0.0073255301 8.1132154e-39
1.7225387 0.98868829 -0.016943932 8.0221016e-39
1.7109102 0.97838974 -0.0073255301 7.929906e-39
1.7109169 0.97422975 -0.0073255301 8.0210226e-39
1.7109234 0.97006977 -0.0073255301 8.1132182e-39
1.71093 0.96590978 -0.0073255301 8.2968878e-39
1.7109367 0.96174979 -0.0073255301 8.9422572e-39
1.7109433 0.95758975 -0.0073255301 8.8518623e-39
1.7109499 0.95342982 -0.0073255301 8.4830797e-39
1.7109566 0.94926983 -0.0073255301 8.4830769e-39
1.7109631 0.94510984 -0.0073255301 8.2064901e-39
1.7109698 0.9409498 -0.0073255301 7.929906e-39
1.7109764 0.93678981 -0.0073255301 7.929906e-39
1.710983 0.93262982 -0.0073255301 7.6544051e-39
1.7342607 0.94005358 -0.026562214 7.4700138e-39
1.7342674 0.93584025 -0.026562214 7.1941332e-39
1.734274 0.93162692 -0.026562214 7.5629157e-39
1.7342808 0.92741358 -0.026562214 8.2064929e-39
1.7342875 0.92320025 -0.026562214 8.2064929e-39
1.7342942 0.91898692 -0.026562214 8.9419195e-39
1.734301 0.91477358 -0.026562214 9.1263108e-39
1.7343076 0.91056025 -0.026562214 9.0351717e-39
1.7226785 0.9007684 -0.016943932 8.4819979e-39
1.7226852 0.89658177 -0.016943932 8.390531e-39
1.7226919 0.89239508 -0.016943932 8.390531e-39
1.7226986 0.88820845 -0.016943932 8.482026e-39
1.7227052 0.88402176 -0.016943932 8.3898303e-39
1.7227119 0.87983507 -0.016943932 8.1139469e-39
1.7227185 0.87564844 -0.016943932 7.9295556e-39
1.7227252 0.87146175 -0.016943932 7.8373572e-39
1.6979916 0.99707597 -0.0016489029 7.8377075e-39
1.7096248 0.99918783 -0.011292577 8.5748998e-39
1.7096314 0.99502778 -0.011292577 8.5748998e-39
1.709638 0.99086779 -0.011292577 8.2071963e-39
1.7096447 0.98670781 -0.011292577 7.8384138e-39
1.7096512 0.98254782 -0.011292577 7.1012341e-39
1.7096579 0.97838777 -0.011292577 6.8246472e-39
1.7096645 0.97422779 -0.011292577 7.9299032e-39
1.7096711 0.9700678 -0.011292577 8.1142944e-39
1.7096777 0.96590781 -0.011292577 8.1142944e-39
1.6980573 0.95574272 -0.0016489029 8.0220988e-39
1.698064 0.95160937 -0.0016489029 8.2993919e-39
1.6980704 0.94747603 -0.0016489029 8.1150007e-39
1.6980771 0.94334269 -0.0016489029 8.0228051e-39
1.6980836 0.9392094 -0.0016489029 7.0086531e-39
1.7097174 0.94094783 -0.011292577 7.3767322e-39
1.6980968 0.93094271 -0.0016489029 7.4689278e-39
1.7097307 0.93262786 -0.011292577 7.5622123e-39
1.7329923 0.94005156 -0.030580163 7.9309948e-39
1.732999 0.93583822 -0.030580163 8.2082823e-39
1.7330056 0.93162489 -0.030580163 8.2082823e-39
1.7213849 0.92169964 -0.02093637 8.3001276e-39
1.7213916 0.91751301 -0.02093637 8.4845189e-39
1.7213982 0.91332632 -0.02093637 8.5753048e-39
1.7330326 0.91477156 -0.030580163 8.3909135e-39
1.7330393 0.91055822 -0.030580163 8.2983354e-39
1.7214183 0.90076637 -0.02093637 7.8373572e-39
1.7214249 0.89657974 -0.02093637 8.0203135e-39
1.7214316 0.89239305 -0.02093637 8.5734873e-39
1.7214382 0.88820642 -0.02093637 8.665683e-39
1.7098167 0.87854791 -0.011292577 8.5734873e-39
1.7098234 0.87438792 -0.011292577 8.390531e-39
1.7098299 0.87022793 -0.011292577 8.2983354e-39
1.7098366 0.86606789 -0.011292577 7.6544079e-39
1.7098432 0.8619079 -0.011292577 7.4700166e-39
1.7214781 0.8630864 -0.02093637 7.929906e-39
1.6967539 0.9929406 -0.0055904388 8.389452e-39
1.6967604 0.98880732 -0.0055904388 8.4816476e-39
1.696767 0.98467398 -0.0055904388 8.1142944e-39
1.7083924 0.98670578 -0.015259504 7.5611206e-39
1.7083989 0.98254579 -0.015259504 7.2848869e-39
1.7084056 0.97838575 -0.015259504 7.6536694e-39
1.7084122 0.97422576 -0.015259504 7.9299032e-39
1.7084188 0.97006577 -0.015259504 8.2064901e-39
1.6968064 0.95987397 -0.0055904388 8.1157364e-39
1.696813 0.95574069 -0.0055904388 7.8391495e-39
1.6968197 0.95160735 -0.0055904388 7.8394998e-39
1.696859 0.92680734 -0.0055904388 7.8377103e-39
1.6968657 0.922674 -0.0055904388 8.2064929e-39
1.6968722 0.91854072 -0.0055904388 8.7593135e-39
1.7201179 0.92588437 -0.024928808 8.6671179e-39
1.7085048 0.91598582 -0.015259504 8.3001248e-39
1.7201313 0.91751105 -0.024928808 8.2079292e-39
1.7085181 0.90766591 -0.015259504 8.1150357e-39
1.7201446 0.90913773 -0.024928808 7.8384488e-39
1.7201512 0.9049511 -0.024928808 8.1132182e-39
1.7085379 0.89518589 -0.015259504 8.0210226e-39
1.7085446 0.8910259 -0.015259504 8.0210226e-39
1.7085512 0.88686591 -0.015259504 8.8507833e-39
1.6969379 0.8772074 -0.0055904388 1.0049326e-38
1.6969446 0.87307405 -0.0055904388 8.5741964e-39
1.7085711 0.87438589 -0.015259504 8.2983354e-39
1.7085776 0.87022591 -0.015259504 8.2983354e-39
1.7085843 0.86606586 -0.015259504 8.2061397e-39
1.7085909 0.86190587 -0.015259504 8.6671179e-39
1.7085975 0.85774595 -0.015259504 8.4845161e-39
1.7086041 0.85358596 -0.015259504 8.9454942e-39
1.6969906 0.84414083 -0.0055904388 9.2220839e-39
1.6955096 0.99293864 -0.0095319748 8.3890961e-39
1.6955161 0.98880535 -0.0095319748 8.2047048e-39
1.6955292 0.98053867 -0.0095319748 7.6522373e-39
1.7071466 0.98254383 -0.01922667 7.3777888e-39
1.7071532 0.97838378 -0.01922667 7.6543757e-39
1.695549 0.96813864 -0.0095319748 7.745865e-39
1.6955556 0.96400535 -0.0095319748 7.745865e-39
1.6955621 0.95987201 -0.0095319748 7.7455119e-39
1.6955754 0.95160538 -0.0095319748 7.5618269e-39
1.6956214 0.92267203 -0.0095319748 8.2054111e-39
1.6956279 0.91853875 -0.0095319748 8.8508029e-39
1.7072459 0.92014384 -0.01922667 8.7586073e-39
1.7072525 0.91598386 -0.01922667 8.1157364e-39
1.7072591 0.91182387 -0.01922667 8.0235407e-39
1.7072657 0.90766394 -0.01922667 8.2986857e-39
1.7072724 0.90350389 -0.01922667 8.1142944e-39
1.707279 0.89934391 -0.01922667 8.0220988e-39
1.7072855 0.89518392 -0.01922667 7.9299032e-39
1.7072922 0.89102393 -0.01922667 7.9295528e-39
1.6956871 0.88133878 -0.0095319748 8.390531e-39
1.6956936 0.87720543 -0.0095319748 8.944383e-39
1.6957003 0.87307209 -0.0095319748 7.9302311e-39
1.6957067 0.8689388 -0.0095319748 8.1139441e-39
1.6957134 0.86480546 -0.0095319748 8.2061397e-39
1.69572 0.86067218 -0.0095319748 8.4830769e-39
1.7073386 0.86190391 -0.01922667 8.6674682e-39
1.7073451 0.85774398 -0.01922667 8.5756257e-39
1.6957396 0.84827214 -0.0095319748 8.9444082e-39
1.6957463 0.84413886 -0.0095319748 8.8522126e-39
1.6826496 0.99490482 -0.0037536621 7.7455147e-39
1.6826626 0.98669147 -0.0037536621 8.2061425e-39
1.6826692 0.98258483 -0.0037536621 7.7451644e-39
1.6826757 0.97847813 -0.0037536621 7.6533191e-39
1.694285 0.9805367 -0.013473511 7.6533191e-39
1.6942916 0.97640336 -0.013473511 7.4692781e-39
1.6942981 0.97227001 -0.013473511 7.5614738e-39
1.6943047 0.96813667 -0.013473511 7.6533163e-39
1.6943113 0.96400338 -0.013473511 7.7455119e-39
1.6827149 0.95383823 -0.0037536621 7.7455119e-39
1.6827215 0.94973153 -0.0037536621 7.6533163e-39
1.6827279 0.94562489 -0.0037536621 7.8369817e-39
1.6827345 0.94151825 -0.0037536621 7.9291773e-39
1.6827476 0.93330491 -0.0037536621 8.2972409e-39
1.6827542 0.92919821 -0.0037536621 8.6667423e-39
1.6827606 0.92509156 -0.0037536621 8.9433292e-39
1.6827672 0.92098486 -0.0037536621 8.9433292e-39
1.6827737 0.91687822 -0.0037536621 9.0355249e-39
1.6827803 0.91277152 -0.0037536621 9.1284492e-39
1.6943902 0.91440344 -0.013473511 8.4830797e-39
1.6943967 0.91027009 -0.013473511 7.9316982e-39
1.6944033 0.90613681 -0.013473511 7.9316982e-39
1.69441 0.90200347 -0.013473511 7.9316982e-39
1.6944165 0.89787012 -0.013473511 7.8395026e-39
1.6944231 0.89373684 -0.013473511 7.9302563e-39
1.7060333 0.89518195 -0.023193598 7.9302563e-39
1.7060399 0.89102197 -0.023193598 7.6547582e-39
1.7060465 0.88686198 -0.023193598 8.3001276e-39
1.6944493 0.87720346 -0.013473511 8.4848692e-39
1.694456 0.87307012 -0.013473511 7.6551085e-39
1.6944625 0.86893684 -0.013473511 8.0221016e-39
1.6944691 0.86480349 -0.013473511 8.667471e-39
1.7060796 0.86606193 -0.023193598 9.1284464e-39
1.7060863 0.86190194 -0.023193598 8.4830769e-39
1.7060928 0.85774201 -0.023193598 8.4834301e-39
1.6944954 0.84827018 -0.013473511 8.760017e-39
1.6828978 0.83885169 -0.0037536621 8.6674682e-39
1.681433 0.98258287 -0.0076696873 7.4685775e-39
1.6814395 0.97847617 -0.0076696873 7.652966e-39
1.681446 0.97436953 -0.0076696873 7.5607703e-39
1.6814525 0.97026289 -0.0076696873 7.5611206e-39
1.6930538 0.97226804 -0.017415285 7.468925e-39
1.6930604 0.9681347 -0.017415285 7.7444329e-39
1.6814722 0.95794284 -0.0076696873 7.8366285e-39
1.6814786 0.95383626 -0.0076696873 7.7455119e-39
1.6814917 0.94562292 -0.0076696873 7.7455119e-39
1.681531 0.9209829 -0.0076696873 8.4837804e-39
1.6815375 0.91687626 -0.0076696873 8.575976e-39
1.6815439 0.91276956 -0.0076696873 8.4837832e-39
1.6931459 0.91440147 -0.017415285 8.0228051e-39
1.6931525 0.91026813 -0.017415285 7.8391495e-39
1.6931591 0.90613484 -0.017415285 7.8391495e-39
1.6931657 0.9020015 -0.017415285 7.9320486e-39
1.6931722 0.89786816 -0.017415285 7.6554617e-39
1.6931788 0.89373487 -0.017415285 7.7462182e-39
1.6931853 0.88960153 -0.017415285 7.8384138e-39
1.6931919 0.88546818 -0.017415285 8.3908813e-39
1.6931986 0.88133484 -0.017415285 8.6674682e-39
1.6932051 0.8772015 -0.017415285 8.8525657e-39
1.6932117 0.87306815 -0.017415285 8.6681745e-39
1.6816224 0.86348963 -0.0076696873 8.6678213e-39
1.6932248 0.86480153 -0.017415285 9.3131907e-39
1.6932315 0.86066824 -0.017415285 8.9447585e-39
1.6932379 0.8565349 -0.017415285 8.575976e-39
1.6932446 0.85240155 -0.017415285 8.6678213e-39
1.6932511 0.84826821 -0.017415285 8.9444082e-39
1.6932577 0.84413493 -0.017415285 8.4830769e-39
1.6816682 0.83474302 -0.0076696873 6.73136e-39
1.6694182 0.98905236 -0.0025129318 7.8377075e-39
1.6694248 0.98497045 -0.0025129318 7.8377075e-39
1.6694313 0.98088855 -0.0025129318 7.7451616e-39
1.6801966 0.9825809 -0.011585951 7.5607703e-39
1.6694442 0.97272474 -0.0025129318 7.652966e-39
1.6694508 0.96864283 -0.0025129318 7.4685747e-39
1.6694573 0.96456093 -0.0025129318 7.4689278e-39
1.6694638 0.96047902 -0.0025129318 7.4689278e-39
1.6694702 0.95639712 -0.0025129318 7.5611235e-39
1.6694767 0.95231527 -0.0025129318 7.4689278e-39
1.6694832 0.94823337 -0.0025129318 7.7455119e-39
1.6694897 0.94415146 -0.0025129318 7.8377075e-39
1.6694962 0.94006956 -0.0025129318 7.4710858e-39
1.6695027 0.93598765 -0.0025129318 7.2866946e-39
1.6695092 0.93190575 -0.0025129318 7.3781685e-39
1.6695157 0.92782384 -0.0025129318 7.6547554e-39
1.6695222 0.92374194 -0.0025129318 8.2068432e-39
1.6695287 0.91966003 -0.0025129318 8.2068432e-39
1.6695352 0.91557813 -0.0025129318 8.2068432e-39
1.6803012 0.91687429 -0.011585951 8.2068432e-39
1.6803077 0.91276759 -0.011585951 8.2983354e-39
1.6803143 0.90866101 -0.011585951 8.0217485e-39
1.6803209 0.90455437 -0.011585951 7.5622095e-39
1.6803273 0.90044767 -0.011585951 7.6544051e-39
1.6803339 0.89634103 -0.011585951 7.9313451e-39
1.6803404 0.89223433 -0.011585951 7.5625626e-39
1.680347 0.88812768 -0.011585951 7.6533163e-39
1.6803535 0.88402098 -0.011585951 7.9299032e-39
1.6919476 0.88546622 -0.021356821 8.4841686e-39
1.6803665 0.87580764 -0.011585951 8.3919729e-39
1.6803731 0.871701 -0.011585951 8.5752726e-39
1.6803796 0.86759436 -0.011585951 8.8518595e-39
1.6803862 0.86348766 -0.011585951 8.5752754e-39
1.6803926 0.85938108 -0.011585951 8.667471e-39
1.6803992 0.85527438 -0.011585951 8.3926736e-39
1.6804057 0.85116774 -0.011585951 8.3926736e-39
1.6920003 0.85239959 -0.021356821 8.3001248e-39
1.6804188 0.8429544 -0.011585951 8.3923205e-39
1.6804253 0.83884776 -0.011585951 8.4830797e-39
1.6804318 0.83474106 -0.011585951 6.915754e-39
1.668196 0.98496848 -0.0064053535 7.9302563e-39
1.6682025 0.98088658 -0.0064053535 8.0221016e-39
1.668209 0.97680467 -0.0064053535 7.8377103e-39
1.6682154 0.97272277 -0.0064053535 7.7451616e-39
1.668222 0.96864086 -0.0064053535 7.3763791e-39
1.6682285 0.96455896 -0.0064053535 7.4685747e-39
1.6682349 0.96047705 -0.0064053535 7.5607703e-39
1.6682934 0.92373997 -0.0064053535 7.7473042e-39
1.6682999 0.91965806 -0.0064053535 6.6409566e-39
1.6683064 0.91557616 -0.0064053535 6.9157512e-39
1.6683129 0.91149426 -0.0064053535 7.0079469e-39
1.6683193 0.90741241 -0.0064053535 7.1912872e-39
1.679078 0.90865904 -0.015501976 7.0990915e-39
1.6790845 0.9045524 -0.015501976 7.5622123e-39
1.6790911 0.9004457 -0.015501976 7.4700166e-39
1.6790975 0.89633906 -0.015501976 7.6544051e-39
1.6791042 0.89223236 -0.015501976 7.4700138e-39
1.6791106 0.88812572 -0.015501976 7.7451616e-39
1.6791172 0.88401902 -0.015501976 7.8373572e-39
1.6791238 0.87991238 -0.015501976 8.3898247e-39
1.6791302 0.87580568 -0.015501976 8.574216e-39
1.6791369 0.87169904 -0.015501976 8.5752754e-39
1.6791433 0.86759239 -0.015501976 8.5752754e-39
1.6791499 0.86348569 -0.015501976 8.4827294e-39
1.6791564 0.85937911 -0.015501976 8.0217513e-39
1.6791629 0.85527241 -0.015501976 8.0231876e-39
1.6791695 0.85116577 -0.015501976 8.3919701e-39
1.690756 0.85239756 -0.025298357 8.3001248e-39
1.6791825 0.84295243 -0.015501976 8.3001248e-39
1.6791891 0.83884579 -0.015501976 8.6671179e-39
1.6791955 0.83473909 -0.015501976 7.0997922e-39
1.6684493 0.82577437 -0.0064053535 6.7299307e-39
1.6553903 0.98275006 -0.00047624111 7.9299032e-39
1.6553967 0.97869486 -0.00047624111 8.0220988e-39
1.6669737 0.98088461 -0.010298014 8.0228401e-39
1.6669801 0.97680271 -0.010298014 7.4696663e-39
1.6669866 0.9727208 -0.010298014 7.7455147e-39
1.6669931 0.9686389 -0.010298014 7.4689278e-39
1.6669997 0.96455699 -0.010298014 7.6515212e-39
1.6554354 0.95436347 -0.00047624111 7.8359125e-39
1.6554419 0.9503082 -0.00047624111 7.5607731e-39
1.6554483 0.946253 -0.00047624111 7.3763819e-39
1.6554548 0.94219774 -0.00047624111 7.8377075e-39
1.6554612 0.93814248 -0.00047624111 8.0220988e-39
1.6554676 0.93408728 -0.00047624111 8.8515119e-39
1.6554742 0.93003201 -0.00047624111 8.0217513e-39
1.6554806 0.92597681 -0.00047624111 7.6551085e-39
1.6554871 0.92192155 -0.00047624111 7.7473042e-39
1.6554935 0.91786629 -0.00047624111 7.8395026e-39
1.6554999 0.91381109 -0.00047624111 6.8253507e-39
1.6555064 0.90975583 -0.00047624111 7.1912493e-39
1.6670841 0.91149229 -0.010298014 7.283445e-39
1.6670905 0.90741044 -0.010298014 7.1901899e-39
1.667097 0.90332854 -0.010298014 7.4667768e-39
1.6671035 0.89924663 -0.010298014 8.4809316e-39
1.6671101 0.89516473 -0.010298014 8.4809316e-39
1.6671165 0.89108282 -0.010298014 7.9295556e-39
1.667123 0.88700092 -0.010298014 7.7451644e-39
1.6778744 0.88812375 -0.01941824 7.652966e-39
1.6778809 0.88401705 -0.01941824 7.7451616e-39
1.6778874 0.87991041 -0.01941824 7.83736e-39
1.677894 0.87580371 -0.01941824 8.0217513e-39
1.6779006 0.87169707 -0.01941824 8.4827266e-39
1.6779071 0.86759043 -0.01941824 8.4827266e-39
1.6779135 0.86348373 -0.01941824 8.2061397e-39
1.6779201 0.85937715 -0.01941824 8.2061397e-39
1.6779267 0.85527045 -0.01941824 8.0221016e-39
1.6779332 0.8511638 -0.01941824 8.2064929e-39
1.6779398 0.8470571 -0.01941824 8.4830769e-39
1.6779462 0.84295046 -0.01941824 8.5752726e-39
1.6779528 0.83884382 -0.01941824 8.9429985e-39
1.6779593 0.83473712 -0.01941824 7.7444553e-39
1.6779659 0.83063048 -0.01941824 7.0068903e-39
1.6541694 0.98274809 -0.0043433905 7.7444329e-39
1.6541759 0.97869289 -0.0043433905 7.9288242e-39
1.6541824 0.97463763 -0.0043433905 7.9309948e-39
1.6657513 0.97680074 -0.014190555 7.4700166e-39
1.6541953 0.96652716 -0.0043433905 7.7455147e-39
1.6542017 0.9624719 -0.0043433905 8.1142972e-39
1.6542082 0.95841664 -0.0043433905 8.2968878e-39
1.6542146 0.9543615 -0.0043433905 8.6656703e-39
1.6542211 0.95030624 -0.0043433905 8.390531e-39
1.6542276 0.94625103 -0.0043433905 7.8373572e-39
1.6542341 0.94219577 -0.0043433905 8.0221016e-39
1.6542405 0.93814051 -0.0043433905 8.2064929e-39
1.6542469 0.93408531 -0.0043433905 8.6671179e-39
1.6542534 0.93003005 -0.0043433905 7.652966e-39
1.6542598 0.92597485 -0.0043433905 7.3788748e-39
1.6542662 0.92191958 -0.0043433905 7.6554617e-39
1.6542727 0.91786432 -0.0043433905 7.8391467e-39
1.6542791 0.91380912 -0.0043433905 7.9313423e-39
1.6542856 0.90975386 -0.0043433905 8.1146476e-39
1.6542921 0.90569872 -0.0043433905 8.1146476e-39
1.6542985 0.90164346 -0.0043433905 9.2202566e-39
1.6658682 0.90332657 -0.014190555 9.6812348e-39
1.6658747 0.89924467 -0.014190555 9.3128404e-39
1.6658813 0.89516276 -0.014190555 8.3908841e-39
1.6658877 0.89108086 -0.014190555 8.2986885e-39
1.6658942 0.88699895 -0.014190555 7.8377103e-39
1.6659007 0.88291705 -0.014190555 7.9295528e-39
1.6659073 0.87883514 -0.014190555 8.1139441e-39
1.6659137 0.87475324 -0.014190555 7.9295528e-39
1.6766578 0.87580174 -0.023334384 7.5607703e-39
1.6766642 0.8716951 -0.023334384 8.2061397e-39
1.6766708 0.86758846 -0.023334384 8.2061397e-39
1.6766773 0.86348176 -0.023334384 8.3908841e-39
1.6659461 0.85434377 -0.014190555 8.4830797e-39
1.6659527 0.85026187 -0.014190555 8.3908813e-39
1.6659591 0.84617996 -0.014190555 8.1142944e-39
1.6659657 0.84209806 -0.014190555 8.3908841e-39
1.6659721 0.83801615 -0.014190555 8.5752754e-39
1.6767166 0.83884186 -0.023334384 9.1280988e-39
1.6767231 0.83473516 -0.023334384 8.0217513e-39
1.6767296 0.83062851 -0.023334384 6.7303062e-39
1.6529552 0.97869092 -0.0082104206 7.5607423e-39
1.6529616 0.97463566 -0.0082104206 8.0217485e-39
1.6645225 0.97679883 -0.018083096 7.5607703e-39
1.6529745 0.9665252 -0.0082104206 7.4685747e-39
1.6529809 0.96246994 -0.0082104206 7.8373572e-39
1.6529874 0.95841467 -0.0082104206 8.2976095e-39
1.6529939 0.95435953 -0.0082104206 8.5741964e-39
1.6530004 0.95030427 -0.0082104206 8.3905338e-39
1.6530068 0.94624907 -0.0082104206 8.2061425e-39
1.6530132 0.94219381 -0.0082104206 8.3908841e-39
1.6530197 0.93813854 -0.0082104206 8.4830797e-39
1.6530391 0.92597288 -0.0082104206 7.2859729e-39
1.653052 0.91786236 -0.0082104206 7.9299032e-39
1.6530584 0.91380715 -0.0082104206 8.1142944e-39
1.6530648 0.90975189 -0.0082104206 8.3912344e-39
1.6530713 0.90569675 -0.0082104206 8.3912344e-39
1.6753627 0.91275972 -0.027250528 9.6805411e-39
1.6646394 0.90332466 -0.018083096 9.5883455e-39
1.6530906 0.89353102 -0.0082104206 9.3124873e-39
1.6753823 0.9004398 -0.027250528 8.4827266e-39
1.6646589 0.89107895 -0.018083096 8.2997773e-39
1.6646653 0.88699704 -0.018083096 7.9309948e-39
1.6646719 0.88291514 -0.018083096 8.390531e-39
1.6646785 0.87883323 -0.018083096 8.1139441e-39
1.6646849 0.87475133 -0.018083096 8.2976067e-39
1.6754215 0.87579978 -0.027250528 8.1132154e-39
1.675428 0.87169313 -0.027250528 8.0217485e-39
1.6754345 0.86758649 -0.027250528 8.6671179e-39
1.675441 0.86347979 -0.027250528 8.668557e-39
1.6647173 0.85434186 -0.018083096 8.3919701e-39
1.6647239 0.85025996 -0.018083096 8.667471e-39
1.6647303 0.84617805 -0.018083096 8.2064929e-39
1.6647369 0.84209615 -0.018083096 8.3898023e-39
1.6647433 0.83801425 -0.018083096 8.8507805e-39
1.6647497 0.83393234 -0.018083096 1.0049326e-38
1.6754868 0.83473319 -0.027250528 8.4820008e-39
1.6647629 0.82576853 -0.018083096 6.364032e-39
1.6410062 0.97689569 -0.0028865337 6.9164323e-39
1.6517344 0.97868901 -0.01207757 7.5618017e-39
1.6517409 0.97463375 -0.01207757 7.7455119e-39
1.6517473 0.97057849 -0.01207757 7.7455119e-39
1.6517538 0.96652329 -0.01207757 7.4685775e-39
1.6517602 0.96246803 -0.01207757 7.4685775e-39
1.6517667 0.95841277 -0.01207757 8.1132182e-39
1.6517731 0.95435762 -0.01207757 8.2054139e-39
1.6517795 0.95030236 -0.01207757 7.9295528e-39
1.651786 0.94624716 -0.01207757 7.8373572e-39
1.6517924 0.9421919 -0.01207757 7.7455147e-39
1.6410767 0.9325605 -0.0028865337 7.7455147e-39
1.6410831 0.92853004 -0.0028865337 7.8377103e-39
1.6410896 0.92449957 -0.0028865337 7.929906e-39
1.6518183 0.92597097 -0.01207757 7.9295528e-39
1.6411024 0.91643858 -0.0028865337 7.9295528e-39
1.6411088 0.91240811 -0.0028865337 8.1142944e-39
1.6411152 0.90837771 -0.0028865337 8.0220988e-39
