# .PCD v0.7 - Point Cloud Data file format
VERSION 0.7
FIELDS x y z rgb
SIZE 4 4 4 4
TYPE F F F F
COUNT 1 1 1 1
WIDTH 912
HEIGHT 1
VIEWPOINT 0 0 0 1 0 0 0
POINTS 912
DATA ascii
1.7628186 1.0008777 -0.0028663874 2.0250444e-39
1.7447038 0.99422228 -0.0037630796 2.2094357e-39
1.7447566 0.95867181 -0.0037630796 1.7509757e-39
1.7447631 0.95422798 -0.0037630796 1.7509757e-39
1.7551577 1.0053406 -0.01904428 1.9335677e-39
1.742856 0.95866901 -0.0077800751 2.0250444e-39
1.7428627 0.95422518 -0.0077800751 2.2094357e-39
1.7532442 1.0053377 -0.023088813 1.9335677e-39
1.7409028 0.99421662 -0.011796951 2.0250444e-39
1.7285677 0.97874302 -0.00050508976 2.0246885e-39
1.7286071 0.952263 -0.00050508976 2.1172401e-39
1.7286136 0.94784975 -0.00050508976 2.2094357e-39
1.7513307 1.0053349 -0.027133107 2.0250444e-39
1.7267262 0.94784695 -0.0044944286 2.393827e-39
1.7247732 0.99197739 -0.0084837675 2.0246885e-39
1.7351947 0.99865192 -0.023847699 2.0250444e-39
1.7105832 0.98091441 -0.0010986328 2.0250444e-39
1.7105962 0.97214866 -0.0010986328 2.4838744e-39
1.7210047 0.98755848 -0.016462445 2.1172401e-39
1.6934632 0.97032034 -0.0022429228 2.1172401e-39
1.6934698 0.96596611 -0.0022429228 2.0250444e-39
1.6935538 0.90936041 -0.0022429228 1.7509757e-39
1.6935604 0.90500617 -0.0022429228 1.7509757e-39
1.6935668 0.90065187 -0.0022429228 1.7509757e-39
1.6935732 0.89629757 -0.0022429228 2.2094357e-39
1.6935797 0.89194334 -0.0022429228 2.2094357e-39
1.6935862 0.88758904 -0.0022429228 2.3934766e-39
1.691601 0.97031754 -0.0061789751 2.1168897e-39
1.6916075 0.9659633 -0.0061789751 2.0250444e-39
1.6917045 0.90064907 -0.0061789751 1.9350166e-39
1.6917305 0.883232 -0.0061789751 1.5665844e-39
1.6897388 0.9703148 -0.010115027 2.1168897e-39
1.6764103 0.96410924 -0.0032323599 2.1168897e-39
1.6764168 0.95978355 -0.0032323599 2.0246885e-39
1.6764296 0.95113212 -0.0032323599 1.6562717e-39
1.6764359 0.94680649 -0.0032323599 1.6562717e-39
1.676481 0.9165265 -0.0032323599 2.0250444e-39
1.6764874 0.91220075 -0.0032323599 2.2094357e-39
1.6764939 0.90787506 -0.0032323599 1.7509757e-39
1.6765003 0.90354931 -0.0032323599 1.7509757e-39
1.6765068 0.89922363 -0.0032323599 2.3934766e-39
1.6765132 0.89489794 -0.0032323599 2.4856723e-39
1.6765196 0.89057225 -0.0032323599 2.2094357e-39
1.6765261 0.8862465 -0.0032323599 2.2094357e-39
1.6745603 0.96410644 -0.0071425438 2.0250444e-39
1.6745667 0.95978075 -0.0071425438 2.0246885e-39
1.6745796 0.95112932 -0.0071425438 1.3818428e-39
1.6746503 0.90354651 -0.0071425438 1.9328502e-39
1.6746567 0.89922082 -0.0071425438 2.0246941e-39
1.6746632 0.89489514 -0.0071425438 2.1168897e-39
1.6746696 0.89056945 -0.0071425438 1.9324929e-39
1.6746761 0.8862437 -0.0071425438 1.9324929e-39
1.6612682 0.957901 -0.00018250942 1.5665844e-39
1.6612747 0.95360386 -0.00018250942 2.0250444e-39
1.6612874 0.94500965 -0.00018250942 1.4740385e-39
1.6612937 0.94071251 -0.00018250942 1.4740385e-39
1.6613449 0.90633535 -0.00018250942 2.0250444e-39
1.6613512 0.90203822 -0.00018250942 1.4743916e-39
1.6613576 0.89774108 -0.00018250942 1.4743916e-39
1.6613641 0.893444 -0.00018250942 1.4740385e-39
1.6613704 0.88914686 -0.00018250942 1.2896472e-39
1.6613768 0.88484973 -0.00018250942 1.840663e-39
1.6613832 0.88055259 -0.00018250942 1.9328586e-39
1.659507 0.90633261 -0.0040668249 2.1172401e-39
1.6595135 0.90203547 -0.0040668249 1.5665872e-39
1.6595199 0.89773834 -0.0040668249 1.5665872e-39
1.6595327 0.88914412 -0.0040668249 1.4743916e-39
1.659539 0.88484699 -0.0040668249 1.4743916e-39
1.6595454 0.88054985 -0.0040668249 1.7509785e-39
1.6690103 0.96409822 -0.018873096 1.4743916e-39
1.6671603 0.96409547 -0.02278316 2.0246941e-39
1.6671667 0.95976979 -0.02278316 1.5665872e-39
1.6671731 0.9554441 -0.02278316 1.5665872e-39
1.6443751 0.93461591 -0.00088787079 2.2094357e-39
1.6444259 0.90046734 -0.00088787079 2.0250444e-39
1.6444322 0.89619881 -0.00088787079 2.1172401e-39
1.6444385 0.89193028 -0.00088787079 2.1172401e-39
1.6426003 0.90046459 -0.0047463179 2.0246941e-39
1.6275232 0.93275946 -0.0014381409 1.6566263e-39
1.6275295 0.92851949 -0.0014381409 1.6566263e-39
1.6275358 0.92427945 -0.0014381409 1.382196e-39
1.627542 0.92003947 -0.0014381409 1.4743916e-39
1.6275485 0.91579944 -0.0014381409 1.4743916e-39
1.6275736 0.89883947 -0.0014381409 2.1168897e-39
1.6275799 0.8945995 -0.0014381409 2.4856723e-39
1.6275861 0.89035952 -0.0014381409 2.2094357e-39
1.6275926 0.88611954 -0.0014381409 1.9328502e-39
1.6275988 0.88187951 -0.0014381409 1.4743916e-39
1.6276051 0.87763953 -0.0014381409 1.4743916e-39
1.6276114 0.8733995 -0.0014381409 2.1168897e-39
1.6276177 0.86915952 -0.0014381409 2.2090854e-39
1.6257855 0.88187677 -0.0052708387 2.1172401e-39
1.6257981 0.87339675 -0.0052708387 1.7506254e-39
1.6239847 0.87339407 -0.0091035366 1.7509757e-39
1.6115756 0.88069576 -0.0025737286 2.0246885e-39
1.6115818 0.87648243 -0.0025737286 2.1172387e-39
1.6115881 0.87226909 -0.0025737286 2.1172387e-39
1.6115943 0.86805576 -0.0025737286 2.0257619e-39
1.6116006 0.86384243 -0.0025737286 2.0257619e-39
1.6116068 0.85962909 -0.0025737286 2.1172401e-39
1.6116132 0.85541576 -0.0025737286 2.1172401e-39
1.6116195 0.85120243 -0.0025737286 1.6587786e-39
1.6097736 0.88069308 -0.0063823462 2.0250444e-39
1.6097798 0.87647974 -0.0063823462 1.5665872e-39
1.6097862 0.87226641 -0.0063823462 1.5665872e-39
1.6097925 0.86805308 -0.0063823462 1.8413734e-39
1.6097987 0.86383975 -0.0063823462 1.9335677e-39
1.609805 0.85962641 -0.0063823462 2.0246885e-39
1.6098112 0.85541308 -0.0063823462 2.0246885e-39
1.607978 0.87647706 -0.010190845 1.5665872e-39
1.6079842 0.87226373 -0.010190845 1.4743916e-39
1.6079905 0.8680504 -0.010190845 1.4743916e-39
1.6079967 0.86383706 -0.010190845 1.382196e-39
1.608003 0.85962373 -0.010190845 2.0246885e-39
1.6080093 0.8554104 -0.010190845 1.9324929e-39
1.5955584 0.92132521 -0.0035647154 1.7488205e-39
1.5955647 0.91713858 -0.0035647154 1.9332117e-39
1.5955709 0.91295189 -0.0035647154 1.8413734e-39
1.5955771 0.90876526 -0.0035647154 1.8413734e-39
1.5955833 0.90457857 -0.0035647154 1.9324929e-39
1.5956206 0.87945861 -0.0035647154 2.0246941e-39
1.5956268 0.87527198 -0.0035647154 2.0246941e-39
1.606176 0.87647438 -0.013999462 2.0246885e-39
1.6061823 0.87226105 -0.013999462 1.9324929e-39
1.6061885 0.86804771 -0.013999462 1.4743916e-39
1.6061949 0.86383438 -0.013999462 1.382196e-39
1.6062012 0.85962105 -0.013999462 1.9324929e-39
1.5956643 0.85015196 -0.0035647154 1.9324929e-39
1.5956705 0.84596527 -0.0035647154 1.9324929e-39
1.5938364 0.87526935 -0.0073491335 2.0246941e-39
1.6043742 0.8764717 -0.01780808 2.0246941e-39
1.6043804 0.87225837 -0.01780808 2.0246941e-39
1.6043866 0.86804503 -0.01780808 1.4743916e-39
1.6043929 0.8638317 -0.01780808 1.4743916e-39
1.6043992 0.85961837 -0.01780808 2.0246885e-39
1.5938737 0.85014933 -0.0073491335 2.0246885e-39
1.5938799 0.84596264 -0.0073491335 1.9324929e-39
1.5814762 0.90313095 -0.00065052509 1.8410161e-39
1.5815133 0.87817103 -0.00065052509 1.840663e-39
1.5815194 0.87401104 -0.00065052509 1.4740385e-39
1.5815256 0.86985105 -0.00065052509 1.5662341e-39
1.5920521 0.87107998 -0.011133671 1.4740385e-39
1.5920583 0.86689329 -0.011133671 1.4740385e-39
1.6025846 0.86804235 -0.021616578 2.0246885e-39
1.6025909 0.86382902 -0.021616578 1.9324929e-39
1.6025972 0.85961568 -0.021616578 1.4743916e-39
1.5920832 0.85014665 -0.011133671 1.382196e-39
1.581569 0.84073108 -0.00065052509 1.7488205e-39
1.581575 0.8365711 -0.00065052509 1.9332117e-39
1.5815812 0.83241111 -0.00065052509 1.4743916e-39
1.5815874 0.82825106 -0.00065052509 1.4743916e-39
1.579697 0.90312833 -0.0044108629 1.564432e-39
1.5797465 0.86984843 -0.0044108629 1.2900073e-39
1.5902616 0.8710773 -0.014918089 1.1978145e-39
1.5902678 0.86689061 -0.014918089 1.2900101e-39
1.5902741 0.86270398 -0.014918089 1.4743916e-39
1.5902803 0.85851729 -0.014918089 1.4743916e-39
1.5902865 0.85433066 -0.014918089 1.4743916e-39
1.5902927 0.85014397 -0.014918089 1.2900017e-39
1.5797898 0.84072846 -0.0044108629 1.6566263e-39
1.579796 0.83656847 -0.0044108629 1.8410161e-39
1.5798022 0.83240849 -0.0044108629 1.5665872e-39
1.5779674 0.86984575 -0.00817132 1.1978145e-39
1.5779736 0.8656857 -0.00817132 1.1981676e-39
1.5884773 0.86688799 -0.018702626 1.2903633e-39
1.5884836 0.86270136 -0.018702626 1.382196e-39
1.5884898 0.85851467 -0.018702626 1.382196e-39
1.588496 0.85432804 -0.018702626 1.382196e-39
1.5885022 0.85014135 -0.018702626 1.382196e-39
1.5780107 0.84072578 -0.00817132 1.382196e-39
1.5780168 0.83656579 -0.00817132 1.4743916e-39
1.5656471 0.90162742 -0.0013763905 1.382196e-39
1.5656533 0.89749408 -0.0013763905 1.382196e-39
1.5656594 0.89336085 -0.0013763905 1.4743916e-39
1.5656656 0.88922751 -0.0013763905 1.4743916e-39
1.5656717 0.88509417 -0.0013763905 1.382196e-39
1.5656779 0.88096082 -0.0013763905 1.1978075e-39
1.5656841 0.87682748 -0.0013763905 1.105972e-39
1.5656902 0.87269413 -0.0013763905 9.2158355e-40
1.5656962 0.86856085 -0.0013763905 1.105972e-39
1.5657024 0.86442751 -0.0013763905 1.1981676e-39
1.5761944 0.86568308 -0.011931658 1.7488205e-39
1.5762006 0.86152309 -0.011931658 1.7488205e-39
1.5762068 0.8573631 -0.011931658 1.7488205e-39
1.576213 0.85320312 -0.011931658 1.7488205e-39
1.5762191 0.84904313 -0.011931658 1.4743916e-39
1.5762253 0.84488308 -0.011931658 1.4743916e-39
1.5762315 0.84072316 -0.011931658 1.7509757e-39
1.5657516 0.83136088 -0.0013763905 1.6587801e-39
1.5657578 0.82722753 -0.0013763905 2.1172387e-39
1.5657638 0.82309419 -0.0013763905 2.0250444e-39
1.56577 0.81896091 -0.0013763905 2.0246885e-39
1.5657761 0.81482756 -0.0013763905 1.5637146e-39
1.5638856 0.89749146 -0.005112648 1.382196e-39
1.5638916 0.89335823 -0.005112648 1.382196e-39
1.5638978 0.88922489 -0.005112648 1.382196e-39
1.563904 0.88509154 -0.005112648 1.3818428e-39
1.5639101 0.8809582 -0.005112648 1.1052559e-39
1.5639163 0.87682486 -0.005112648 1.105972e-39
1.5639224 0.87269151 -0.005112648 1.105972e-39
1.5639347 0.86442488 -0.005112648 1.1981676e-39
1.5639409 0.86029154 -0.005112648 1.1978145e-39
1.563947 0.8561582 -0.005112648 1.1978145e-39
1.5744276 0.85736048 -0.015691996 1.7488205e-39
1.5744338 0.8532005 -0.015691996 1.8410161e-39
1.57444 0.84904051 -0.015691996 1.4743916e-39
1.5744462 0.84488046 -0.015691996 1.4743916e-39
1.5639777 0.8354916 -0.005112648 1.4740385e-39
1.5639839 0.83135825 -0.005112648 1.5662341e-39
1.56399 0.82722491 -0.005112648 2.0246885e-39
1.5639961 0.82309157 -0.005112648 2.0246885e-39
1.5640023 0.81895828 -0.005112648 1.4743916e-39
1.5640085 0.81482494 -0.005112648 1.382196e-39
1.5621178 0.89748883 -0.0088489056 1.382196e-39
1.562124 0.89335561 -0.0088489056 1.3818428e-39
1.5498867 0.90007067 -0.0019575357 1.3829134e-39
1.560344 0.90161955 -0.012585044 1.382196e-39
1.5603502 0.89748621 -0.012585044 1.2900017e-39
1.5603563 0.89335299 -0.012585044 1.7488205e-39
1.5499113 0.88364404 -0.0019575357 1.9332117e-39
1.5499172 0.8795374 -0.0019575357 1.4740385e-39
1.5499234 0.8754307 -0.0019575357 1.4740385e-39
1.5499295 0.87132406 -0.0019575357 1.382196e-39
1.5499356 0.86721742 -0.0019575357 1.1978075e-39
1.5499661 0.84668404 -0.0019575357 1.0134233e-39
1.5499783 0.83847082 -0.0019575357 1.4743916e-39
1.5499845 0.83436412 -0.0019575357 1.2900017e-39
1.5499905 0.83025748 -0.0019575357 1.1056161e-39
1.5499966 0.82615077 -0.0019575357 1.2900073e-39
1.5500027 0.82204413 -0.0019575357 1.7488205e-39
1.5500088 0.81793743 -0.0019575357 1.7488205e-39
1.550015 0.81383079 -0.0019575357 1.382196e-39
1.5481304 0.9000681 -0.005669713 1.3829134e-39
1.5585763 0.90161693 -0.016321301 1.382196e-39
1.5585824 0.89748359 -0.016321301 1.2900017e-39
1.5585885 0.89335036 -0.016321301 1.7488205e-39
1.5481548 0.88364148 -0.005669713 1.8410161e-39
1.5481609 0.87953484 -0.005669713 1.4743916e-39
1.548167 0.87542814 -0.005669713 1.4743916e-39
1.5481732 0.8713215 -0.005669713 1.4743916e-39
1.5481793 0.86721486 -0.005669713 1.1978075e-39
1.5482098 0.84668148 -0.005669713 1.1056161e-39
1.548228 0.83436155 -0.005669713 2.0246885e-39
1.5482342 0.83025491 -0.005669713 1.9324929e-39
1.5482403 0.82614821 -0.005669713 1.9324929e-39
1.5482464 0.82204157 -0.005669713 1.7484674e-39
1.5463741 0.90006548 -0.0093818903 1.4743916e-39
1.5463803 0.89595884 -0.0093818903 1.4743916e-39
1.5463864 0.8918522 -0.0093818903 1.4743916e-39
1.5463924 0.88774556 -0.0093818903 1.4743916e-39
1.5463986 0.88363886 -0.0093818903 1.4743916e-39
1.5464046 0.87953222 -0.0093818903 1.7488205e-39
1.546484 0.82614559 -0.0093818903 2.2998335e-39
1.5464901 0.82203895 -0.0093818903 1.7484674e-39
1.5349448 0.89478666 -0.0031584501 1.3829134e-39
1.5446239 0.89595622 -0.013094068 1.4743916e-39
1.5446301 0.89184958 -0.013094068 1.4743916e-39
1.5446361 0.88774294 -0.013094068 1.4743916e-39
1.5446422 0.88363624 -0.013094068 1.4743916e-39
1.5349752 0.87437713 -0.0031584501 1.9324929e-39
1.5349813 0.87029523 -0.0031584501 1.748103e-39
1.5349873 0.86621332 -0.0031584501 1.382196e-39
1.5349934 0.86213142 -0.0031584501 1.382196e-39
1.535054 0.82131243 -0.0031584501 2.0246941e-39
1.53506 0.81723052 -0.0031584501 1.4740385e-39
1.5350661 0.81314862 -0.0031584501 1.3818428e-39
1.5350722 0.80906671 -0.0031584501 1.1978145e-39
1.5332052 0.89070213 -0.0068482161 1.3818428e-39
1.5428737 0.89184695 -0.016806126 1.3818428e-39
1.5428798 0.88774031 -0.016806126 1.9324929e-39
1.542886 0.88363361 -0.016806126 1.9324929e-39
1.5332295 0.87437451 -0.0068482161 1.7488205e-39
1.5332355 0.8702926 -0.0068482161 1.7488205e-39
1.5332476 0.86212879 -0.0068482161 1.1981676e-39
1.5333083 0.8213098 -0.0068482161 1.7484674e-39
1.5333143 0.8172279 -0.0068482161 1.7484674e-39
1.5333204 0.813146 -0.0068482161 1.7484674e-39
1.5333265 0.80906409 -0.0068482161 1.1978145e-39
1.5314715 0.88253576 -0.010537982 1.1974642e-39
1.5314777 0.87845385 -0.010537982 1.1974642e-39
1.5315626 0.82130724 -0.010537982 1.7484674e-39
1.5315807 0.80906153 -0.010537982 1.1978145e-39
1.519331 0.88504142 -0.0034555197 1.6566263e-39
1.5193369 0.88098621 -0.0034555197 1.564432e-39
1.5193429 0.87693095 -0.0034555197 1.5640761e-39
1.519349 0.87287575 -0.0034555197 1.4718805e-39
1.5193551 0.86882049 -0.0034555197 1.105972e-39
1.519361 0.86476523 -0.0034555197 1.105972e-39
1.5193731 0.85665476 -0.0034555197 1.6562689e-39
1.5193791 0.85259956 -0.0034555197 1.7488205e-39
1.5193851 0.8485443 -0.0034555197 1.7488205e-39
1.5194032 0.83637863 -0.0034555197 1.7488205e-39
1.5194092 0.83232343 -0.0034555197 2.0254074e-39
1.5194153 0.82826817 -0.0034555197 2.0246885e-39
1.5194213 0.82421291 -0.0034555197 1.748103e-39
1.5194273 0.82015771 -0.0034555197 2.0228962e-39
1.5298169 0.82130462 -0.014227748 2.2072875e-39
1.5194395 0.81204724 -0.0034555197 1.5640761e-39
1.5194454 0.80799198 -0.0034555197 1.4718805e-39
1.529835 0.8090589 -0.014227748 1.5640761e-39
1.5194575 0.79988152 -0.0034555197 1.4718805e-39
1.5194635 0.79582626 -0.0034555197 9.2122762e-40
1.5176027 0.88098365 -0.0071210861 1.105972e-39
1.5176086 0.87692839 -0.0071210861 1.5640761e-39
1.5176207 0.86881793 -0.0071210861 1.5640733e-39
1.5176388 0.8566522 -0.0071210861 1.7484646e-39
1.5176508 0.84854174 -0.0071210861 1.840663e-39
1.517669 0.83637607 -0.0071210861 1.7488205e-39
1.5176749 0.83232087 -0.0071210861 1.9332117e-39
1.517681 0.82826561 -0.0071210861 2.0246941e-39
1.517687 0.82421035 -0.0071210861 1.8403029e-39
1.517693 0.82015514 -0.0071210861 1.5640733e-39
1.517699 0.81609988 -0.0071210861 1.6562689e-39
1.5177051 0.81204468 -0.0071210861 1.6559214e-39
1.5177112 0.80798942 -0.0071210861 1.4715301e-39
1.5177171 0.80393416 -0.0071210861 1.0134233e-39
1.5177231 0.79987895 -0.0071210861 9.2122762e-40
1.5177292 0.79582369 -0.0071210861 9.2122762e-40
1.5062302 0.88784581 -0.0007392168 1.382196e-39
1.5062362 0.88381535 -0.0007392168 1.382196e-39
1.5062422 0.87978488 -0.0007392168 1.1981676e-39
1.5062482 0.87575442 -0.0007392168 1.105972e-39
1.5062542 0.87172389 -0.0007392168 1.1978145e-39
1.5062602 0.86769342 -0.0007392168 1.1056189e-39
1.5158864 0.86881536 -0.010786772 1.5640733e-39
1.5062721 0.85963249 -0.0007392168 1.5640733e-39
1.5062782 0.85560203 -0.0007392168 1.7488205e-39
1.5062841 0.85157156 -0.0007392168 1.7488205e-39
1.5062901 0.84754103 -0.0007392168 1.9324929e-39
1.5159166 0.84853917 -0.010786772 1.8402972e-39
1.5063021 0.83948016 -0.0007392168 1.4740385e-39
1.5063081 0.8354497 -0.0007392168 1.3818428e-39
1.506314 0.83141923 -0.0007392168 1.6566263e-39
1.50632 0.82738876 -0.0007392168 1.7488205e-39
1.5063261 0.82335824 -0.0007392168 1.7488205e-39
1.5159527 0.82420778 -0.010786772 1.564432e-39
1.506338 0.81529731 -0.0007392168 1.105972e-39
1.5159647 0.81609732 -0.010786772 1.105972e-39
1.5159707 0.81204212 -0.010786772 1.1056161e-39
1.5159768 0.80798686 -0.010786772 1.0134205e-39
1.5159829 0.80393159 -0.010786772 9.2122762e-40
1.5063679 0.79514492 -0.0007392168 9.2122762e-40
1.5063739 0.79111445 -0.0007392168 9.2122762e-40
1.5045304 0.87172133 -0.0043824911 1.5640733e-39
1.5045364 0.86769086 -0.0043824911 1.6562689e-39
1.5045424 0.8636604 -0.0043824911 1.1981676e-39
1.5045484 0.85962993 -0.0043824911 1.1981676e-39
1.5045544 0.85559946 -0.0043824911 1.7488205e-39
1.5045604 0.851569 -0.0043824911 1.8410161e-39
1.5045664 0.84753847 -0.0043824911 1.9324929e-39
1.5045724 0.84350801 -0.0043824911 1.9324929e-39
1.5045784 0.8394776 -0.0043824911 1.4740385e-39
1.5045843 0.83544713 -0.0043824911 1.3818428e-39
1.5045903 0.83141667 -0.0043824911 1.7488205e-39
1.5045964 0.8273862 -0.0043824911 1.6566263e-39
1.5046023 0.82335567 -0.0043824911 1.1981676e-39
1.5046083 0.81932521 -0.0043824911 9.2158355e-40
1.5046144 0.81529474 -0.0043824911 1.0137778e-39
1.5046203 0.81126428 -0.0043824911 1.105972e-39
1.5046263 0.80723381 -0.0043824911 1.0134233e-39
1.5046322 0.80320334 -0.0043824911 1.0134233e-39
1.5142485 0.80392903 -0.014452338 1.0134205e-39
1.5046442 0.79514235 -0.0043824911 1.0134205e-39
1.5046502 0.79111189 -0.0043824911 9.2122762e-40
1.5028367 0.85156643 -0.0080257654 1.840663e-39
1.5028486 0.84350544 -0.0080257654 1.7484674e-39
1.5028965 0.81126171 -0.0080257654 1.0137778e-39
1.5029025 0.80723125 -0.0080257654 1.0137778e-39
1.5029085 0.80320078 -0.0080257654 1.0137778e-39
1.5029145 0.79917026 -0.0080257654 1.0134233e-39
1.5029205 0.79513979 -0.0080257654 1.0134233e-39
1.5029265 0.79110932 -0.0080257654 1.0137778e-39
1.5029445 0.77901793 -0.0080257654 5.5244791e-40
1.5029504 0.77498746 -0.0080257654 2.7694142e-40
1.491465 0.88654292 -0.0015543699 1.7488205e-39
1.4914827 0.87452579 -0.0015543699 1.7484674e-39
1.4914887 0.87052006 -0.0015543699 1.6562717e-39
1.4914947 0.86651438 -0.0015543699 1.1056161e-39
1.4915006 0.86250865 -0.0015543699 1.1978117e-39
1.4915066 0.85850292 -0.0015543699 1.1981676e-39
1.4915125 0.85449719 -0.0015543699 1.2903633e-39
1.4915185 0.85049152 -0.0015543699 1.7488205e-39
1.4915245 0.84648579 -0.0015543699 1.7488205e-39
1.4915304 0.84248012 -0.0015543699 1.7488205e-39
1.4915364 0.83847439 -0.0015543699 1.6566263e-39
1.4915423 0.83446872 -0.0015543699 1.382196e-39
1.4915483 0.83046299 -0.0015543699 1.1056133e-39
1.4915543 0.82645726 -0.0015543699 1.0137778e-39
1.4915602 0.82245159 -0.0015543699 1.105972e-39
1.4915662 0.81844586 -0.0015543699 1.5640733e-39
1.4915721 0.81444013 -0.0015543699 1.5640733e-39
1.4915781 0.8104344 -0.0015543699 1.105972e-39
1.4915841 0.80642873 -0.0015543699 1.0137778e-39
1.5011789 0.80722868 -0.01166904 1.0134205e-39
1.4915959 0.79841727 -0.0015543699 1.0134205e-39
1.5011908 0.79916769 -0.01166904 1.105972e-39
1.5011967 0.79513723 -0.01166904 1.105972e-39
1.4916137 0.7864002 -0.0015543699 1.0137778e-39
1.4916197 0.78239447 -0.0015543699 9.2158355e-40
1.4916257 0.77838874 -0.0015543699 9.2158355e-40
1.5012207 0.77901536 -0.01166904 6.4500087e-40
1.5012267 0.7749849 -0.01166904 5.5244791e-40
1.4897697 0.87452322 -0.0051752329 1.1978145e-39
1.4897757 0.87051749 -0.0051752329 1.0134233e-39
1.4897816 0.86651182 -0.0051752329 1.0134233e-39
1.4897935 0.85850036 -0.0051752329 1.1981676e-39
1.4897995 0.85449463 -0.0051752329 1.2903633e-39
1.4898053 0.85048896 -0.0051752329 1.6566263e-39
1.4898113 0.84648323 -0.0051752329 1.6566263e-39
1.4898173 0.84247756 -0.0051752329 1.5640761e-39
1.4898232 0.83847183 -0.0051752329 1.5640761e-39
1.4898292 0.83446616 -0.0051752329 1.0137778e-39
1.4898351 0.83046043 -0.0051752329 1.0137778e-39
1.4898411 0.8264547 -0.0051752329 1.105972e-39
1.4898471 0.82244903 -0.0051752329 1.105972e-39
1.489853 0.8184433 -0.0051752329 1.5640761e-39
1.489859 0.81443757 -0.0051752329 1.5640761e-39
1.4898649 0.81043184 -0.0051752329 1.105972e-39
1.4898709 0.80642617 -0.0051752329 1.105972e-39
1.4994551 0.80722612 -0.015312314 1.0134233e-39
1.4898827 0.79841471 -0.0051752329 1.0134233e-39
1.499467 0.79916513 -0.015312314 1.105972e-39
1.4994731 0.79513466 -0.015312314 1.105972e-39
1.4899006 0.78639764 -0.0051752329 1.0137778e-39
1.4899065 0.78239191 -0.0051752329 1.0137778e-39
1.4899125 0.77838618 -0.0051752329 9.2122482e-40
1.4899185 0.77438051 -0.0051752329 7.3683636e-40
1.499503 0.77498233 -0.015312314 2.7730015e-40
1.499509 0.77095187 -0.015312314 1.8510592e-40
1.4880683 0.86650926 -0.0087960958 1.5640761e-39
1.4880743 0.86250353 -0.0087960958 1.6562717e-39
1.4880803 0.8584978 -0.0087960958 1.1978145e-39
1.4880862 0.85449207 -0.0087960958 1.1978145e-39
1.4880922 0.8504864 -0.0087960958 1.1981676e-39
1.4880981 0.84648067 -0.0087960958 1.105972e-39
1.4881041 0.842475 -0.0087960958 1.105972e-39
1.4881101 0.83846927 -0.0087960958 9.2158355e-40
1.488116 0.8344636 -0.0087960958 1.0137778e-39
1.488122 0.83045787 -0.0087960958 1.0137778e-39
1.4881279 0.82645214 -0.0087960958 1.105972e-39
1.4881339 0.82244647 -0.0087960958 1.1981676e-39
1.4881399 0.81844074 -0.0087960958 1.1056161e-39
1.4881458 0.81443501 -0.0087960958 1.1056161e-39
1.4881518 0.81042928 -0.0087960958 1.105972e-39
1.4881577 0.8064236 -0.0087960958 1.105972e-39
1.4881637 0.80241787 -0.0087960958 1.105972e-39
1.4881697 0.79841214 -0.0087960958 1.105972e-39
1.4881756 0.79440641 -0.0087960958 1.105972e-39
1.4881816 0.7904008 -0.0087960958 1.105972e-39
1.4881874 0.78639507 -0.0087960958 1.105972e-39
1.4881934 0.78238934 -0.0087960958 1.0137778e-39
1.4881994 0.77838361 -0.0087960958 9.2158355e-40
1.4882053 0.77437794 -0.0087960958 7.371951e-40
1.4977793 0.77497977 -0.018955588 6.4464354e-40
1.4767454 0.89713341 -0.0022351742 1.2900017e-39
1.4767631 0.88519061 -0.0022351742 1.1981676e-39
1.4767691 0.88120961 -0.0022351742 1.0137778e-39
1.4767809 0.87324774 -0.0022351742 1.105972e-39
1.4767869 0.86926675 -0.0022351742 1.5640733e-39
1.4767928 0.86528581 -0.0022351742 1.5640733e-39
1.4767987 0.86130488 -0.0022351742 1.5640733e-39
1.4863613 0.86250103 -0.012416959 1.6562689e-39
1.4863672 0.8584953 -0.012416959 1.1981676e-39
1.4863732 0.85448956 -0.012416959 1.105972e-39
1.4863791 0.85048389 -0.012416959 1.105972e-39
1.4768282 0.84140015 -0.0022351742 1.105972e-39
1.4863911 0.84247249 -0.012416959 1.105972e-39
1.486397 0.83846676 -0.012416959 1.105972e-39
1.4864029 0.83446109 -0.012416959 1.105972e-39
1.4864088 0.83045536 -0.012416959 1.1981676e-39
1.4864148 0.82644963 -0.012416959 1.1981676e-39
1.4864208 0.82244396 -0.012416959 1.105972e-39
1.4864267 0.81843823 -0.012416959 1.1978145e-39
1.4864327 0.8144325 -0.012416959 1.0134233e-39
1.4864386 0.81042677 -0.012416959 1.0137778e-39
1.4768875 0.80159062 -0.0022351742 1.105972e-39
1.4864506 0.80241537 -0.012416959 1.105972e-39
1.4864565 0.79840964 -0.012416959 1.0137778e-39
1.4864625 0.79440391 -0.012416959 1.4718791e-39
1.4864684 0.7903983 -0.012416959 1.4718791e-39
1.4864743 0.78639257 -0.012416959 9.2122762e-40
1.4769229 0.77770495 -0.0022351742 9.2122762e-40
1.4864862 0.77838111 -0.012416959 9.2122762e-40
1.4864922 0.77437544 -0.012416959 8.2903199e-40
1.4960556 0.77497721 -0.022598863 2.7730015e-40
1.4750606 0.8851881 -0.0058336258 1.1981676e-39
1.4750665 0.88120711 -0.0058336258 1.105972e-39
1.4750843 0.86926425 -0.0058336258 1.5640733e-39
1.4750903 0.86528331 -0.0058336258 1.6562689e-39
1.4750961 0.86130238 -0.0058336258 1.1981676e-39
1.4846481 0.86249846 -0.016037941 1.1981676e-39
1.4846541 0.85849273 -0.016037941 1.1981676e-39
1.48466 0.854487 -0.016037941 1.105972e-39
1.484666 0.85048133 -0.016037941 1.105972e-39
1.4751257 0.84139764 -0.0058336258 1.105972e-39
1.4751316 0.83741671 -0.0058336258 1.1056161e-39
1.4751375 0.83343577 -0.0058336258 1.1056161e-39
1.4846897 0.83445853 -0.016037941 1.1974642e-39
1.4751494 0.82547385 -0.0058336258 1.1974642e-39
1.4847016 0.82644707 -0.016037941 1.1981676e-39
1.4751612 0.81751198 -0.0058336258 1.1981676e-39
1.4847136 0.81843567 -0.016037941 1.1981676e-39
1.4847195 0.81442994 -0.016037941 1.105972e-39
1.4847255 0.81042421 -0.016037941 1.0134233e-39
1.4751849 0.80158812 -0.0058336258 1.1056189e-39
1.4847374 0.80241281 -0.016037941 1.105972e-39
1.4847434 0.79840708 -0.016037941 1.0137778e-39
1.4847493 0.79440135 -0.016037941 9.2122482e-40
1.4847553 0.79039574 -0.016037941 1.0134205e-39
1.4752145 0.78168344 -0.0058336258 1.0134205e-39
1.4752203 0.77770245 -0.0058336258 9.2122482e-40
1.4847732 0.77837855 -0.016037941 9.2122762e-40
1.4847791 0.77437288 -0.016037941 7.3683636e-40
1.4847851 0.77036715 -0.016037941 4.6204734e-40
1.4943378 0.77094418 -0.026242137 1.8546465e-40
1.4733403 0.89712834 -0.0094321966 1.382196e-39
1.4733522 0.88916647 -0.0094321966 1.1978075e-39
1.473358 0.88518554 -0.0094321966 1.105972e-39
1.4733818 0.86926168 -0.0094321966 1.105972e-39
1.4733877 0.86528075 -0.0094321966 1.105972e-39
1.4733936 0.86129981 -0.0094321966 1.105972e-39
1.4733995 0.85731888 -0.0094321966 1.105972e-39
1.4734054 0.85333788 -0.0094321966 1.105972e-39
1.4734113 0.84935695 -0.0094321966 1.105972e-39
1.4734173 0.84537601 -0.0094321966 1.105972e-39
1.4734231 0.84139508 -0.0094321966 1.105972e-39
1.4734291 0.83741415 -0.0094321966 1.105972e-39
1.4734349 0.83343321 -0.0094321966 1.105972e-39
1.4734409 0.82945222 -0.0094321966 1.0134233e-39
1.4734468 0.82547128 -0.0094321966 1.1978145e-39
1.4734527 0.82149035 -0.0094321966 1.1981676e-39
1.4734586 0.81750941 -0.0094321966 1.105972e-39
1.4734645 0.81352842 -0.0094321966 1.0134233e-39
1.4734704 0.80954748 -0.0094321966 1.0134233e-39
1.4830123 0.81042165 -0.019658923 1.105972e-39
1.4734824 0.80158556 -0.0094321966 1.105972e-39
1.4830242 0.80241024 -0.019658923 1.105972e-39
1.4830302 0.79840451 -0.019658923 1.105972e-39
1.4830362 0.79439878 -0.019658923 1.0137778e-39
1.4830421 0.79039317 -0.019658923 1.0137778e-39
1.4735119 0.78168088 -0.0094321966 9.2122762e-40
1.4735178 0.77769989 -0.0094321966 9.2122762e-40
1.48306 0.77837598 -0.019658923 9.2122762e-40
1.4735296 0.76973802 -0.0094321966 9.2122762e-40
1.4735355 0.76575708 -0.0094321966 3.6949578e-40
1.4628341 0.90003467 -0.0035700798 1.7488205e-39
1.4628401 0.89607656 -0.0035700798 1.4743916e-39
1.4716377 0.89712584 -0.013030648 1.4743916e-39
1.4628518 0.88816047 -0.0035700798 1.3829134e-39
1.4628577 0.88420236 -0.0035700798 1.1063307e-39
1.4716555 0.88518304 -0.013030648 1.105972e-39
1.4628694 0.87628615 -0.0035700798 1.105972e-39
1.4628754 0.87232804 -0.0035700798 1.105972e-39
1.4628812 0.86836994 -0.0035700798 1.105972e-39
1.462887 0.86441189 -0.0035700798 1.105972e-39
1.4716852 0.86527824 -0.013030648 1.105972e-39
1.471691 0.86129731 -0.013030648 1.105972e-39
1.471697 0.85731637 -0.013030648 1.105972e-39
1.4717028 0.85333538 -0.013030648 1.105972e-39
1.4717088 0.84935445 -0.013030648 1.105972e-39
1.4717147 0.84537351 -0.013030648 1.105972e-39
1.4629283 0.83670527 -0.0035700798 1.105972e-39
1.4717265 0.83741164 -0.013030648 1.105972e-39
1.4629401 0.82878906 -0.0035700798 1.105972e-39
1.4629459 0.82483095 -0.0035700798 1.105972e-39
1.4629518 0.8208729 -0.0035700798 1.105972e-39
1.4717501 0.82148784 -0.013030648 1.105972e-39
1.4629636 0.81295669 -0.0035700798 1.0137778e-39
1.4717619 0.81352592 -0.013030648 1.0134205e-39
1.4717679 0.80954498 -0.013030648 1.0134205e-39
1.4717739 0.80556405 -0.013030648 1.105972e-39
1.4717798 0.80158305 -0.013030648 1.0137778e-39
1.4717857 0.79760212 -0.013030648 1.0134233e-39
1.481317 0.79840195 -0.023279786 1.0134233e-39
1.481323 0.79439622 -0.023279786 1.0137778e-39
1.4718034 0.78565931 -0.013030648 9.2158355e-40
1.4718094 0.78167838 -0.013030648 9.2122762e-40
1.4718152 0.77769738 -0.013030648 9.2122762e-40
1.4718212 0.77371645 -0.013030648 9.2122762e-40
1.471827 0.76973552 -0.013030648 9.2122762e-40
1.471833 0.76575458 -0.013030648 9.2122482e-40
1.4611531 0.89211601 -0.0071479082 1.564432e-39
1.461165 0.88419986 -0.0071479082 1.105972e-39
1.4611708 0.88024175 -0.0071479082 1.105972e-39
1.4611766 0.87628365 -0.0071479082 1.105972e-39
1.4611884 0.86836743 -0.0071479082 1.105972e-39
1.4611943 0.86440939 -0.0071479082 1.105972e-39
1.4612002 0.86045128 -0.0071479082 1.105972e-39
1.4612061 0.85649318 -0.0071479082 1.105972e-39
1.4612119 0.85253507 -0.0071479082 1.0137778e-39
1.4612179 0.84857696 -0.0071479082 9.2158355e-40
1.4612237 0.84461886 -0.0071479082 1.0137778e-39
1.4612296 0.84066087 -0.0071479082 1.105972e-39
1.4612414 0.83274466 -0.0071479082 1.105972e-39
1.461259 0.8208704 -0.0071479082 1.0134233e-39
1.461265 0.81691229 -0.0071479082 1.0137778e-39
1.4612708 0.81295419 -0.0071479082 1.0137778e-39
1.4612767 0.80899608 -0.0071479082 1.0137778e-39
1.4612826 0.80503798 -0.0071479082 1.0137778e-39
1.4700713 0.80556148 -0.016629219 1.0137778e-39
1.4612944 0.79712182 -0.0071479082 9.2158355e-40
1.4700831 0.79759955 -0.016629219 1.0134205e-39
1.4700891 0.79361862 -0.016629219 1.0134205e-39
1.4700949 0.78963768 -0.016629219 9.2122762e-40
1.4701009 0.78565675 -0.016629219 9.2122762e-40
1.4613237 0.77733135 -0.0071479082 9.2122762e-40
1.4613297 0.77337331 -0.0071479082 9.2122762e-40
1.4701186 0.77371389 -0.016629219 9.2158355e-40
1.4613414 0.76545709 -0.0071479082 9.2158355e-40
1.4701304 0.76575202 -0.016629219 7.3683636e-40
1.4499453 0.89455551 -0.00043189526 1.105972e-39
1.4499512 0.8906222 -0.00043189526 1.105972e-39
1.449957 0.88668889 -0.00043189526 1.105972e-39
1.4499629 0.88275552 -0.00043189526 1.105972e-39
1.4499687 0.87882221 -0.00043189526 1.105972e-39
1.459478 0.88023919 -0.010725856 1.0134233e-39
1.4499804 0.87095553 -0.00043189526 1.1056189e-39
1.4499862 0.86702222 -0.00043189526 1.1056161e-39
1.4499921 0.86308885 -0.00043189526 1.1056161e-39
1.4499979 0.85915554 -0.00043189526 1.1981676e-39
1.4500037 0.85522223 -0.00043189526 1.105972e-39
1.4500096 0.85128886 -0.00043189526 1.105972e-39
1.4500155 0.84735554 -0.00043189526 1.0137778e-39
1.4500213 0.84342217 -0.00043189526 9.2158355e-40
1.4500272 0.83948892 -0.00043189526 1.0137778e-39
1.4500329 0.83555561 -0.00043189526 1.105972e-39
1.4500389 0.83162224 -0.00043189526 1.105972e-39
1.4500446 0.82768893 -0.00043189526 1.105972e-39
1.4500506 0.82375556 -0.00043189526 1.105972e-39
1.4500564 0.81982225 -0.00043189526 1.105972e-39
1.4500623 0.81588894 -0.00043189526 1.0137778e-39
1.4500681 0.81195557 -0.00043189526 1.0137778e-39
1.450074 0.80802226 -0.00043189526 9.2158355e-40
1.4500798 0.80408889 -0.00043189526 1.0137778e-39
1.4500856 0.80015558 -0.00043189526 1.0137778e-39
1.4595957 0.80107731 -0.010725856 1.0137778e-39
1.4596015 0.79711926 -0.010725856 1.0137778e-39
1.4596074 0.79316115 -0.010725856 1.0137778e-39
1.4596133 0.78920311 -0.010725856 9.2158355e-40
1.4596192 0.785245 -0.010725856 9.2122762e-40
1.459625 0.7812869 -0.010725856 9.2122762e-40
1.4501265 0.77262229 -0.00043189526 9.2122762e-40
1.4596368 0.77337074 -0.010725856 9.2122762e-40
1.4596426 0.76941264 -0.010725856 9.2158355e-40
1.4596486 0.76545453 -0.010725856 9.2158355e-40
1.4482749 0.88668638 -0.0039874315 1.0134205e-39
1.4482807 0.88275301 -0.0039874315 1.105972e-39
1.4482865 0.8788197 -0.0039874315 9.2158355e-40
1.4482924 0.87488633 -0.0039874315 9.2122762e-40
1.4482982 0.87095302 -0.0039874315 1.1056189e-39
1.4483041 0.86701971 -0.0039874315 1.1056161e-39
1.4483099 0.86308634 -0.0039874315 1.1056161e-39
1.4483157 0.85915303 -0.0039874315 1.1056161e-39
1.4483216 0.85521972 -0.0039874315 1.1056161e-39
1.4483275 0.85128635 -0.0039874315 1.105972e-39
1.4483333 0.84735304 -0.0039874315 1.105972e-39
1.4483392 0.84341967 -0.0039874315 1.0134233e-39
1.4483449 0.83948642 -0.0039874315 1.0134233e-39
1.4483509 0.83555311 -0.0039874315 1.0137778e-39
1.4483566 0.83161974 -0.0039874315 9.2158355e-40
1.4483626 0.82768643 -0.0039874315 9.2122762e-40
1.4483684 0.82375306 -0.0039874315 9.2122762e-40
1.4483976 0.80408639 -0.0039874315 9.2122762e-40
1.4484035 0.80015308 -0.0039874315 9.2122762e-40
1.4484093 0.79621977 -0.0039874315 9.2158355e-40
1.4484152 0.7922864 -0.0039874315 9.2158355e-40
1.448421 0.78835315 -0.0039874315 9.2122762e-40
1.4484268 0.78441983 -0.0039874315 9.2122762e-40
1.4484327 0.78048646 -0.0039874315 8.2903199e-40
1.4484385 0.77655315 -0.0039874315 7.3683636e-40
1.4484444 0.77261978 -0.0039874315 9.2122762e-40
1.4484502 0.76868647 -0.0039874315 8.2903199e-40
1.45795 0.76941013 -0.014303565 9.2122762e-40
1.4484619 0.76081979 -0.0039874315 8.2903199e-40
1.4466686 0.83555061 -0.0075429678 1.0134205e-39
1.4467388 0.78835064 -0.0075429678 1.3796876e-39
1.4467447 0.78441733 -0.0075429678 1.287492e-39
1.4467505 0.78048396 -0.0075429678 9.2122762e-40
1.4467622 0.77261728 -0.0075429678 8.2903199e-40
1.446768 0.76868397 -0.0075429678 7.3683636e-40
1.4467739 0.76475066 -0.0075429678 7.3683636e-40
1.4467797 0.76081729 -0.0075429678 6.4464214e-40
1.4467856 0.75688398 -0.0075429678 6.4464354e-40
1.4467914 0.75295061 -0.0075429678 5.5244791e-40
1.4361445 0.89731592 -0.0015345812 1.1056161e-39
1.4362316 0.83865887 -0.0015345812 1.0134205e-39
1.4362375 0.83474845 -0.0015345812 1.0134205e-39
1.4362433 0.83083797 -0.0015345812 9.2122762e-40
1.436255 0.823017 -0.0015345812 9.2122762e-40
1.4362665 0.81519604 -0.0015345812 9.2122762e-40
1.4362724 0.81128556 -0.0015345812 9.2122762e-40
1.4362781 0.80737507 -0.0015345812 9.2122762e-40
1.4362839 0.80346459 -0.0015345812 9.2122762e-40
1.4362898 0.79955411 -0.0015345812 9.2122762e-40
1.4362956 0.79564363 -0.0015345812 8.2903199e-40
1.4363015 0.79173321 -0.0015345812 8.2903199e-40
1.4363072 0.78782278 -0.0015345812 9.2122762e-40
1.436313 0.7839123 -0.0015345812 1.3796876e-39
1.4363189 0.78000182 -0.0015345812 1.3796876e-39
1.4363246 0.77609134 -0.0015345812 8.2903199e-40
1.4363304 0.77218086 -0.0015345812 8.2903199e-40
1.4363363 0.76827037 -0.0015345812 8.2903199e-40
1.4363421 0.76435989 -0.0015345812 6.4464214e-40
1.436348 0.76044941 -0.0015345812 6.4464354e-40
1.4363537 0.75653893 -0.0015345812 6.4464354e-40
1.4451034 0.75688148 -0.011098266 6.4464354e-40
1.4451092 0.75294811 -0.011098266 5.5244791e-40
1.4363711 0.74480754 -0.0015345812 4.6061241e-40
1.4363769 0.74089706 -0.0015345812 2.7622395e-40
1.4345709 0.83083546 -0.005069375 9.2122762e-40
1.4345825 0.8230145 -0.005069375 9.2122762e-40
1.4345883 0.81910402 -0.005069375 9.2122762e-40
1.4345942 0.81519353 -0.005069375 9.2122762e-40
1.4345999 0.81128305 -0.005069375 9.2122762e-40
1.4346057 0.80737257 -0.005069375 9.2122762e-40
1.4346116 0.80346209 -0.005069375 7.3683636e-40
1.4346174 0.79955161 -0.005069375 7.3683636e-40
1.4346232 0.79564112 -0.005069375 7.3683636e-40
1.434629 0.7917307 -0.005069375 6.4464354e-40
1.4346348 0.78782028 -0.005069375 6.4464354e-40
1.4346406 0.7839098 -0.005069375 8.2903199e-40
1.4346464 0.77999932 -0.005069375 8.2903199e-40
1.4346522 0.77608883 -0.005069375 8.2903199e-40
1.4346581 0.77217835 -0.005069375 7.3683636e-40
1.4346639 0.76826787 -0.005069375 6.4464354e-40
1.4346697 0.76435739 -0.005069375 6.4464354e-40
1.4346755 0.76044691 -0.005069375 6.4464354e-40
1.4346813 0.75653642 -0.005069375 6.4464354e-40
1.4346871 0.75262594 -0.005069375 6.4464354e-40
1.4346929 0.74871552 -0.005069375 6.4464354e-40
1.4346987 0.74480504 -0.005069375 5.5244791e-40
1.4347045 0.74089456 -0.005069375 5.5244791e-40
1.4329915 0.76826537 -0.0086041689 6.4464354e-40
1.4329972 0.76435488 -0.0086041689 5.5244791e-40
1.4330031 0.7604444 -0.0086041689 6.4464354e-40
1.4330089 0.75653392 -0.0086041689 6.4464354e-40
1.4330148 0.75262344 -0.0086041689 7.3683636e-40
1.4330206 0.74871302 -0.0086041689 6.4464214e-40
1.4330322 0.74089205 -0.0086041689 5.5244791e-40
1.4217107 0.8762421 -0.0017107725 1.0134205e-39
1.4217165 0.87235636 -0.0017107725 1.105972e-39
1.4217223 0.86847067 -0.0017107725 1.105972e-39
1.421728 0.86458492 -0.0017107725 1.0134233e-39
1.4217743 0.83349925 -0.0017107725 9.2122762e-40
1.42178 0.82961357 -0.0017107725 8.2903199e-40
1.4217858 0.82572788 -0.0017107725 8.2903199e-40
1.4217916 0.82184213 -0.0017107725 8.2903199e-40
1.4217974 0.81795645 -0.0017107725 8.2903199e-40
1.4218031 0.8140707 -0.0017107725 7.3683636e-40
1.421809 0.81018502 -0.0017107725 8.2903199e-40
1.4218147 0.80629927 -0.0017107725 8.2903199e-40
1.4218204 0.80241358 -0.0017107725 9.2122762e-40
1.4218262 0.79852784 -0.0017107725 8.2903199e-40
1.421832 0.79464215 -0.0017107725 8.2903199e-40
1.4218378 0.7907564 -0.0017107725 8.2903199e-40
1.4218435 0.78687078 -0.0017107725 8.2868167e-40
1.4218494 0.78298503 -0.0017107725 7.3648604e-40
1.4218551 0.77909935 -0.0017107725 6.4464354e-40
1.4218609 0.7752136 -0.0017107725 7.3683917e-40
1.4218667 0.77132791 -0.0017107725 6.4464354e-40
1.4218724 0.76744217 -0.0017107725 6.4464354e-40
1.4313191 0.76826292 -0.012138963 6.4464354e-40
1.4218839 0.75967079 -0.0017107725 6.4464354e-40
1.4218898 0.75578505 -0.0017107725 6.4464354e-40
1.4313365 0.75653148 -0.012138963 7.3683917e-40
1.4313424 0.752621 -0.012138963 8.2868167e-40
1.4313481 0.74871057 -0.012138963 8.2868167e-40
1.4219129 0.74024218 -0.0017107725 5.5244791e-40
1.4219186 0.73635656 -0.0017107725 5.5244791e-40
1.4219244 0.73247081 -0.0017107725 3.6841958e-40
1.4201471 0.81018257 -0.0052232742 6.4428761e-40
1.4201529 0.80629683 -0.0052232742 6.4428761e-40
1.4201586 0.80241114 -0.0052232742 6.4464354e-40
1.4201645 0.79852539 -0.0052232742 7.3683917e-40
1.4201702 0.79463971 -0.0052232742 8.2903199e-40
1.420176 0.79075396 -0.0052232742 8.2903199e-40
1.4201818 0.78686833 -0.0052232742 8.2903199e-40
1.4201875 0.78298259 -0.0052232742 8.2903199e-40
1.4202163 0.76355404 -0.0052232742 6.4464354e-40
1.4202222 0.75966835 -0.0052232742 6.4464354e-40
1.420228 0.7557826 -0.0052232742 6.4464354e-40
1.4296641 0.75652897 -0.015673757 6.4464354e-40
1.4296699 0.75261849 -0.015673757 6.4428761e-40
1.4296757 0.74870807 -0.015673757 7.3648324e-40
1.420251 0.74023974 -0.0052232742 6.4464214e-40
1.4202569 0.73635411 -0.0052232742 5.5244791e-40
1.4202626 0.73246837 -0.0052232742 3.6841958e-40
1.4184853 0.81018007 -0.0087357759 8.2868167e-40
1.4184911 0.80629432 -0.0087357759 7.3648604e-40
1.4184968 0.80240864 -0.0087357759 7.3683636e-40
1.4185026 0.79852289 -0.0087357759 6.4464214e-40
1.4185084 0.7946372 -0.0087357759 8.2903059e-40
1.4185545 0.76355153 -0.0087357759 6.4464354e-40
1.4185661 0.7557801 -0.0087357759 6.4464354e-40
1.4279917 0.75652647 -0.01920855 6.4464354e-40
1.4185777 0.74800867 -0.0087357759 6.4464354e-40
1.4280033 0.74870557 -0.01920855 6.4464354e-40
1.4185892 0.74023724 -0.0087357759 6.4464214e-40
1.4185951 0.73635161 -0.0087357759 5.5244791e-40
1.4186008 0.73246586 -0.0087357759 2.7694142e-40
1.4186065 0.72858018 -0.0087357759 1.8474719e-40
1.4080753 0.8480503 -0.0025602579 9.2122762e-40
1.4080868 0.8403247 -0.0025602579 8.2903199e-40
1.4080925 0.83646184 -0.0025602579 8.2903199e-40
1.408127 0.8132847 -0.0025602579 7.3683636e-40
1.4081327 0.80942184 -0.0025602579 7.3683636e-40
1.4081385 0.80555898 -0.0025602579 7.3683636e-40
1.4168292 0.80629188 -0.012248158 6.4464214e-40
1.40815 0.79783326 -0.0025602579 6.4464354e-40
1.4081557 0.79397041 -0.0025602579 6.4464354e-40
1.4081614 0.79010761 -0.0025602579 6.4464354e-40
1.4081671 0.78624475 -0.0025602579 7.3683917e-40
1.4081728 0.78238189 -0.0025602579 7.3683636e-40
1.4081786 0.77851903 -0.0025602579 7.3683636e-40
1.4082073 0.75920475 -0.0025602579 6.4464354e-40
1.4082131 0.75534189 -0.0025602579 6.4464354e-40
1.4082189 0.75147903 -0.0025602579 5.5244791e-40
1.4169101 0.75189197 -0.012248158 5.5244791e-40
1.4169159 0.74800622 -0.012248158 5.5244791e-40
1.4169216 0.74412054 -0.012248158 6.4464354e-40
1.4169273 0.74023479 -0.012248158 5.5244791e-40
1.4169332 0.73634917 -0.012248158 5.5244791e-40
1.416939 0.73246342 -0.012248158 4.6061241e-40
1.4064233 0.84804785 -0.006051898 9.2122762e-40
1.4064348 0.84032226 -0.006051898 9.2122762e-40
1.4064405 0.8364594 -0.006051898 9.2122762e-40
1.4064462 0.83259654 -0.006051898 7.3683636e-40
1.4064634 0.82100797 -0.006051898 8.2903059e-40
1.4064692 0.81714511 -0.006051898 7.3683636e-40
1.4064749 0.81328225 -0.006051898 7.3683636e-40
1.4064864 0.80555654 -0.006051898 6.4464214e-40
1.4064922 0.80169368 -0.006051898 6.4464214e-40
1.406498 0.79783082 -0.006051898 6.4464354e-40
1.4065726 0.74761373 -0.006051898 6.4464354e-40
1.4065783 0.74375087 -0.006051898 6.4464354e-40
1.406584 0.73988801 -0.006051898 5.5244791e-40
1.4065897 0.73602521 -0.006051898 5.5244791e-40
1.4065955 0.73216236 -0.006051898 5.5244791e-40
1.4066012 0.7282995 -0.006051898 5.5244791e-40
1.415283 0.72857523 -0.015760541 4.6025368e-40
1.4047885 0.83645695 -0.0095437765 8.2868167e-40
1.4048114 0.82100552 -0.0095437765 7.3683636e-40
1.4048171 0.81714267 -0.0095437765 6.4464214e-40
1.4048229 0.81327981 -0.0095437765 6.4464354e-40
1.4048401 0.80169123 -0.0095437765 6.4464354e-40
1.4048458 0.79782838 -0.0095437765 6.4464354e-40
1.3942072 1.0159727 -0.0032855272 8.2868167e-40
1.394213 1.0121328 -0.0032855272 9.208773e-40
1.3942186 1.0082927 -0.0032855272 9.2158355e-40
1.3942243 1.0044527 -0.0032855272 9.2158355e-40
1.39423 1.0006127 -0.0032855272 9.2158355e-40
1.3942357 0.99677283 -0.0032855272 9.2158355e-40
1.3942415 0.9929328 -0.0032855272 8.2903199e-40
1.3942472 0.98909283 -0.0032855272 8.2903199e-40
1.3942585 0.98141283 -0.0032855272 9.2122482e-40
1.3942642 0.9775728 -0.0032855272 1.0130729e-39
1.3943727 0.90461284 -0.0032855272 8.2903199e-40
1.3943784 0.90077287 -0.0032855272 9.2158355e-40
1.3943899 0.89309293 -0.0032855272 9.2122762e-40
1.3944583 0.84701294 -0.0032855272 8.2903199e-40
1.394464 0.84317291 -0.0032855272 7.3683636e-40
1.3944697 0.839333 -0.0032855272 6.4464354e-40
1.3944755 0.83549297 -0.0032855272 7.3683917e-40
1.3944812 0.831653 -0.0032855272 8.2868167e-40
1.3944868 0.82781297 -0.0032855272 8.2868167e-40
1.3944925 0.823973 -0.0032855272 7.3683636e-40
1.3944982 0.82013297 -0.0032855272 7.3683636e-40
1.394504 0.816293 -0.0032855272 7.3683636e-40
1.3945097 0.81245297 -0.0032855272 6.4464214e-40
1.3945154 0.808613 -0.0032855272 6.4464354e-40
1.394521 0.80477297 -0.0032855272 6.4464354e-40
1.3945267 0.800933 -0.0032855272 6.4464354e-40
1.3945324 0.79709297 -0.0032855272 6.4464354e-40
1.3945382 0.79325294 -0.0032855272 6.4464354e-40
1.3945439 0.78941303 -0.0032855272 6.4464354e-40
1.3945496 0.78557301 -0.0032855272 6.4464354e-40
1.3945553 0.78173304 -0.0032855272 6.4464354e-40
1.3945668 0.77405304 -0.0032855272 5.5244791e-40
1.3945953 0.75485301 -0.0032855272 6.4464354e-40
1.394601 0.75101304 -0.0032855272 5.5244791e-40
1.3946066 0.74717301 -0.0032855272 6.4464354e-40
1.3946123 0.74333304 -0.0032855272 5.5244791e-40
1.394618 0.73949301 -0.0032855272 6.4464354e-40
1.3946238 0.7356531 -0.0032855272 5.5244791e-40
1.3946295 0.73181307 -0.0032855272 5.5244791e-40
1.3946352 0.7279731 -0.0032855272 5.5244791e-40
1.3946409 0.72413307 -0.0032855272 5.5244791e-40
1.3925649 1.0159702 -0.0067566633 9.208773e-40
1.3925878 1.0006104 -0.0067566633 9.2158355e-40
1.3925935 0.99677038 -0.0067566633 9.2158355e-40
1.3925991 0.99293035 -0.0067566633 9.2122762e-40
1.3926163 0.98141038 -0.0067566633 9.2122482e-40
1.3926334 0.96989036 -0.0067566633 9.2122762e-40
1.3928275 0.83933055 -0.0067566633 7.3683636e-40
1.3928331 0.83549052 -0.0067566633 7.3683636e-40
1.3928388 0.83165056 -0.0067566633 7.3683636e-40
1.3928446 0.82781053 -0.0067566633 7.3683636e-40
1.392856 0.82013053 -0.0067566633 6.4464354e-40
1.3928617 0.81629056 -0.0067566633 6.4464354e-40
1.3928673 0.81245053 -0.0067566633 6.4464354e-40
1.392873 0.80861056 -0.0067566633 5.5244791e-40
1.3928788 0.80477053 -0.0067566633 6.4464214e-40
1.3928845 0.80093056 -0.0067566633 5.5244791e-40
1.3928902 0.79709053 -0.0067566633 5.5244791e-40
1.3928959 0.7932505 -0.0067566633 6.4464354e-40
1.3929017 0.78941059 -0.0067566633 6.4464354e-40
1.3929074 0.78557056 -0.0067566633 6.4464354e-40
1.3929701 0.7433306 -0.0067566633 3.6949578e-40
1.3929758 0.73949057 -0.0067566633 3.6878252e-40
1.3929815 0.73565066 -0.0067566633 3.6878252e-40
1.3929873 0.73181063 -0.0067566633 2.7694142e-40
1.392993 0.72797066 -0.0067566633 3.6913565e-40
