# .PCD v0.7 - Point Cloud Data file format
VERSION 0.7
FIELDS x y z rgb
SIZE 4 4 4 4
TYPE F F F F
COUNT 1 1 1 1
WIDTH 1113
HEIGHT 1
VIEWPOINT 0 0 0 1 0 0 0
POINTS 1113
DATA ascii
nan nan nan 8.9412427e-39
nan nan nan 9.3089434e-39
nan nan nan 8.7557696e-39
nan nan nan 2.9057325e-40
nan nan nan 1.3990564e-41
nan nan nan 1.9586789e-40
nan nan nan 1.1479437e-41
nan nan nan 2.1523944e-42
nan nan nan 6.475204e-40
nan nan nan 1.8905198e-40
nan nan nan 2.1523944e-42
nan nan nan 1.0761972e-42
nan nan nan 2.7802182e-40
nan nan nan 4.8946402e-39
nan nan nan 3.8804883e-39
nan nan nan 3.5127694e-39
nan nan nan 4.3425301e-39
0.3852286 1719.5118 -0.49217921 3.8829868e-39
0.38258097 1719.5118 -0.49217921 3.5142043e-39
0.37993336 1719.5118 -0.49217921 3.6039084e-39
0.3789143 1719.5098 -0.49430367 3.6039084e-39
0.37625527 1719.5098 -0.49430367 2.9621193e-39
0.37466669 1719.5083 -0.49572006 2.8699237e-39
0.37359431 1719.5062 -0.49784455 3.4198703e-39
0.36933336 1719.5083 -0.49572006 3.6964572e-39
0.36823812 1719.5062 -0.49784455 3.4205738e-39
0.36556002 1719.5062 -0.49784455 3.6971606e-39
0.36443049 1719.5042 -0.49996907 3.5124163e-39
0.36174098 1719.5042 -0.49996907 3.1436337e-39
0.35905147 1719.5042 -0.49996907 4.1538382e-39
0.35636193 1719.5042 -0.49996907 3.2318819e-39
0.35367242 1719.5042 -0.49996907 3.5117156e-39
0.3524743 1719.5021 -0.50209361 4.2492806e-39
0.34977335 1719.5021 -0.50209361 4.3446979e-39
0.34707239 1719.5021 -0.50209361 4.5290891e-39
0.34582859 1719.4999 -0.5042181 4.9886309e-39
0.34311622 1719.4999 -0.5042181 4.4354572e-39
0.34183812 1719.4978 -0.50634265 4.711328e-39
0.33911431 1719.4978 -0.50634265 4.8035236e-39
0.3363905 1719.4978 -0.50634265 3.6982551e-39
0.33366668 1719.4978 -0.50634265 6.0953414e-39
0.33233145 1719.4957 -0.5084672 5.1715649e-39
0.33097336 1719.4937 -0.51059163 4.8027823e-39
nan nan nan 4.0673781e-39
0.36746287 1719.4283 -0.57645154 4.0673781e-39
0.36615241 1719.4255 -0.57928425 4.6205645e-39
0.36303622 1719.4255 -0.57928425 4.7127601e-39
0.35992002 1719.4255 -0.57928425 5.6293186e-39
0.35680383 1719.4255 -0.57928425 5.9059055e-39
0.35368764 1719.4255 -0.57928425 4.8967604e-39
0.35228574 1719.4227 -0.58211696 4.8967604e-39
0.34915432 1719.4227 -0.58211696 5.1715649e-39
0.34602287 1719.4227 -0.58211696 5.1715649e-39
0.34289145 1719.4227 -0.58211696 5.0804734e-39
0.34141335 1719.4199 -0.58494967 4.3429084e-39
0.3382667 1719.4199 -0.58494967 2.6840877e-39
0.33512002 1719.4199 -0.58494967 3.5138484e-39
0.33197334 1719.4199 -0.58494967 3.7897122e-39
0.3288267 1719.4199 -0.58494967 4.2506904e-39
0.32568002 1719.4199 -0.58494967 4.7109777e-39
0.32253337 1719.4199 -0.58494967 4.618782e-39
0.31938669 1719.4199 -0.58494967 4.6198302e-39
0.31470859 1719.4227 -0.58211696 4.1588521e-39
0.31157717 1719.4227 -0.58211696 4.7109524e-39
0.30844572 1719.4227 -0.58211696 5.5407131e-39
0.3038286 1719.4255 -0.57928425 4.9882526e-39
0.29924193 1719.4283 -0.57645154 5.0804482e-39
0.29614097 1719.4283 -0.57645154 5.0808266e-39
0.29160002 1719.4312 -0.57361895 4.7120441e-39
0.28851432 1719.4312 -0.57361895 5.7251016e-39
0.28542858 1719.4312 -0.57361895 4.9875365e-39
0.28234288 1719.4312 -0.57361895 4.8967604e-39
0.27925715 1719.4312 -0.57361895 5.0811517e-39
0.27617145 1719.4312 -0.57361895 4.6205589e-39
0.27308574 1719.4312 -0.57361895 4.2517764e-39
0.27000001 1719.4312 -0.57361895 2.4100092e-39
0.26691431 1719.4312 -0.57361895 4.1617261e-39
0.26382858 1719.4312 -0.57361895 3.6964572e-39
0.25945526 1719.434 -0.57078624 4.6184135e-39
0.25638479 1719.434 -0.57078624 4.710249e-39
0.25331432 1719.434 -0.57078624 4.6180534e-39
0.24900192 1719.4368 -0.56795359 4.3446979e-39
0.24594668 1719.4368 -0.56795359 4.5290891e-39
0.24289145 1719.4368 -0.56795359 4.8967856e-39
0.2398362 1719.4368 -0.56795359 4.7123944e-39
0.23678097 1719.4368 -0.56795359 5.2659213e-39
0.23372573 1719.4368 -0.56795359 6.095682e-39
0.2306705 1719.4368 -0.56795359 5.4506951e-39
0.22761525 1719.4368 -0.56795359 5.0819126e-39
0.22456001 1719.4368 -0.56795359 4.9889813e-39
0.22150478 1719.4368 -0.56795359 2.4996993e-39
0.21844953 1719.4368 -0.56795359 3.2293652e-39
0.2153943 1719.4368 -0.56795359 1.9386264e-39
0.21233906 1719.4368 -0.56795359 7.3971323e-40
0.21032764 1719.434 -0.57078624 3.6899734e-39
0.20725715 1719.434 -0.57078624 4.2467443e-39
0.20317334 1719.4368 -0.56795359 4.5233312e-39
0.2011162 1719.434 -0.57078624 4.7120314e-39
0.19902858 1719.4312 -0.57361895 4.9886183e-39
0.19594286 1719.4312 -0.57361895 5.9059055e-39
0.19285716 1719.4312 -0.57361895 3.5088191e-39
0.19070858 1719.4283 -0.57645154 1.756749e-39
0.18760763 1719.4283 -0.57645154 3.6928573e-39
0.18450668 1719.4283 -0.57645154 3.232242e-39
0.18051429 1719.4312 -0.57361895 3.9698071e-39
0.17830478 1719.4283 -0.57645154 3.7890031e-39
0.17692572 1719.4227 -0.58211696 3.6968075e-39
0.17294858 1719.4255 -0.57928425 3.7857661e-39
0.17066287 1719.4227 -0.58211696 3.5091793e-39
0.16834667 1719.4199 -0.58494967 3.41952e-39
0.16520001 1719.4199 -0.58494967 2.7741506e-39
0.1628381 1719.4171 -0.58778232 3.1443526e-39
0.15967619 1719.4171 -0.58778232 1.8536138e-39
0.1565143 1719.4171 -0.58778232 3.1447057e-39
0.15335239 1719.4171 -0.58778232 3.2369014e-39
0.15019049 1719.4171 -0.58778232 4.3389301e-39
0.14773715 1719.4143 -0.59061503 4.9842995e-39
0.14525335 1719.4114 -0.59344769 4.2513882e-39
0.14273906 1719.4086 -0.59628046 4.8967576e-39
0.13953143 1719.4086 -0.59628046 4.8034984e-39
0.13632382 1719.4086 -0.59628046 4.7113028e-39
0.13374858 1719.4058 -0.59911305 3.2401384e-39
0.13052572 1719.4058 -0.59911305 4.2542903e-39
0.12790477 1719.403 -0.60194576 4.9882526e-39
0.12466668 1719.403 -0.60194576 4.1584919e-39
0.12142858 1719.403 -0.60194576 4.3436091e-39
0.11819048 1719.403 -0.60194576 3.8826309e-39
0.11495239 1719.403 -0.60194576 3.5127694e-39
0.12012573 1719.358 -0.64726871 3.604965e-39
0.11600572 1719.3616 -0.64372784 4.8002614e-39
0.11192381 1719.3651 -0.64018703 5.4456308e-39
0.10848001 1719.3651 -0.64018703 1.4801649e-39
0.1050362 1719.3651 -0.64018703 1.2035781e-39
0.10159238 1719.3651 -0.64018703 1.6620395e-39
0.09771429 1719.3679 -0.63735437 1.2010613e-39
0.094285719 1719.3679 -0.63735437 2.9560237e-39
0.090857148 1719.3679 -0.63735437 3.0482193e-39
0.086942866 1719.3715 -0.6338135 2.4961161e-39
0.083533339 1719.3715 -0.6338135 1.2053773e-39
0.080123812 1719.3715 -0.6338135 3.6020839e-39
0.075942859 1719.3777 -0.62743998 3.1411058e-39
0.072567627 1719.3777 -0.62743998 3.3273243e-39
0.069192387 1719.3777 -0.62743998 3.41952e-39
0.065445721 1719.3812 -0.6238991 4.0648796e-39
0.062089529 1719.3812 -0.6238991 4.0648796e-39
0.059066672 1719.3777 -0.62743998 4.5236745e-39
0.055691432 1719.3777 -0.62743998 4.5236745e-39
0.052316193 1719.3777 -0.62743998 4.3396434e-39
0.048940957 1719.3777 -0.62743998 4.5240346e-39
0.045565717 1719.3777 -0.62743998 1.9379285e-39
0.041952383 1719.3812 -0.6238991 2.0301241e-39
0.038596194 1719.3812 -0.6238991 2.0304717e-39
nan nan nan 2.0304717e-39
nan nan nan 1.938276e-39
nan nan nan 1.8460804e-39
nan nan nan 1.938276e-39
nan nan nan 2.0304717e-39
0.018563811 1719.3777 -0.62743998 2.030822e-39
0.015188572 1719.3777 -0.62743998 2.1230176e-39
0.011866667 1719.3749 -0.63027263 1.8489447e-39
0.0084761912 1719.3749 -0.63027263 2.2177272e-39
0.0051142862 1719.3715 -0.6338135 2.0344051e-39
0.001704762 1719.3715 -0.6338135 3.3251439e-39
-0.001704762 1719.3715 -0.6338135 4.1520558e-39
-0.0050857146 1719.3749 -0.63027263 4.6130339e-39
nan nan nan 4.3389399e-39
nan nan nan 4.5233312e-39
nan nan nan 4.7109524e-39
nan nan nan 4.6187568e-39
nan nan nan 4.9893344e-39
nan nan nan 5.1737257e-39
nan nan nan 5.5392936e-39
-0.047228575 1719.0835 -0.92416382 4.8939242e-39
-0.052200004 1719.0835 -0.92416382 4.9846527e-39
-0.057171434 1719.0835 -0.92416382 5.5378264e-39
-0.06214286 1719.0835 -0.92416382 4.7109524e-39
-0.067628577 1719.0764 -0.93124551 4.6187568e-39
-0.072638102 1719.0764 -0.93124551 5.169404e-39
nan nan nan 4.7084259e-39
nan nan nan 3.604965e-39
nan nan nan 6.0020514e-39
-0.09873715 1719.016 -0.99214822 7.6515212e-39
-0.10407429 1719.016 -0.99214822 7.1905431e-39
-0.10941143 1719.016 -0.99214822 8.0166912e-39
-0.11474858 1719.016 -0.99214822 8.6620606e-39
-0.12008572 1719.016 -0.99214822 7.1008235e-39
-0.12542287 1719.016 -0.99214822 7.2852148e-39
-0.13188002 1719.0076 -1.0006464 7.3738525e-39
-0.13609715 1719.016 -0.99214822 8.4802001e-39
-0.1414343 1719.016 -0.99214822 7.8358901e-39
-0.14677143 1719.016 -0.99214822 1.0048585e-38
-0.15210858 1719.016 -0.99214822 7.4613104e-39
-0.15620953 1719.0238 -0.98435843 8.3832667e-39
-0.16150478 1719.0238 -0.98435843 9.1248436e-39
-0.16680001 1719.0238 -0.98435843 9.032648e-39
-0.17209525 1719.0238 -0.98435843 6.545161e-39
-0.17739049 1719.0238 -0.98435843 6.8217479e-39
-0.18268573 1719.0238 -0.98435843 9.6769286e-39
-0.18798096 1719.0238 -0.98435843 8.6627767e-39
-0.1932762 1719.0238 -0.98435843 9.4928877e-39
-0.20014288 1719.016 -0.99214822 9.2163008e-39
-0.20548001 1719.016 -0.99214822 7.3749091e-39
-0.21081716 1719.016 -0.99214822 6.913931e-39
-0.21445715 1719.0238 -0.98435843 8.6649249e-39
-0.2197524 1719.0238 -0.98435843 8.5727292e-39
-0.22504763 1719.0238 -0.98435843 5.2544475e-39
-0.23034286 1719.0238 -0.98435843 8.2047076e-39
-0.23563811 1719.0238 -0.98435843 9.4003445e-39
-0.24093334 1719.0238 -0.98435843 8.6627795e-39
-0.24622859 1719.0238 -0.98435843 1.0137531e-38
-0.25351429 1719.016 -0.99214822 7.6482492e-39
-0.25885144 1719.016 -0.99214822 1.1427567e-38
-0.26418859 1719.016 -0.99214822 8.6616977e-39
-0.26952574 1719.016 -0.99214822 8.6638655e-39
-0.27486289 1719.016 -0.99214822 7.280931e-39
-0.2802 1719.016 -0.99214822 8.2936158e-39
-0.28553715 1719.016 -0.99214822 7.6482464e-39
-0.2908743 1719.016 -0.99214822 8.7542688e-39
-0.29621145 1719.016 -0.99214822 9.3074426e-39
-0.3015486 1719.016 -0.99214822 8.5716754e-39
-0.30688575 1719.016 -0.99214822 7.0965454e-39
-0.31222287 1719.016 -0.99214822 9.8591815e-39
-0.31756002 1719.016 -0.99214822 1.0227964e-38
-0.32289717 1719.016 -0.99214822 8.5713195e-39
-0.32823431 1719.016 -0.99214822 9.4010802e-39
-0.33357146 1719.016 -0.99214822 9.8617052e-39
-0.33890858 1719.016 -0.99214822 9.5851183e-39
-0.34424573 1719.016 -0.99214822 8.2050453e-39
-0.34958288 1719.016 -0.99214822 9.5879798e-39
-0.35492003 1719.016 -0.99214822 7.1905431e-39
-0.36025718 1719.016 -0.99214822 8.1124994e-39
-0.3655943 1719.016 -0.99214822 8.5716754e-39
-0.37093145 1719.016 -0.99214822 8.8482623e-39
-0.3762686 1719.016 -0.99214822 8.8496889e-39
-0.38160574 1719.016 -0.99214822 9.7716452e-39
-0.38694289 1719.016 -0.99214822 8.6646194e-39
-0.39228001 1719.016 -0.99214822 8.2036412e-39
-0.39761716 1719.016 -0.99214822 8.9379538e-39
-0.3997905 1719.0238 -0.98435843 9.9521058e-39
-0.40508574 1719.0238 -0.98435843 1.0231567e-38
-0.41038099 1719.0238 -0.98435843 9.8627842e-39
-0.41567621 1719.0238 -0.98435843 1.0324138e-38
-0.42097145 1719.0238 -0.98435843 6.9128996e-39
-0.4262667 1719.0238 -0.98435843 8.3919701e-39
-0.43156195 1719.0238 -0.98435843 1.0789057e-38
-0.43685716 1719.0238 -0.98435843 9.8627618e-39
-0.44215241 1719.0238 -0.98435843 9.1251967e-39
-0.44744766 1719.0238 -0.98435843 1.0046096e-38
-0.45274287 1719.0238 -0.98435843 1.0875857e-38
-0.45803812 1719.0238 -0.98435843 8.3883856e-39
-0.46333337 1719.0238 -0.98435843 1.0232298e-38
-0.46862862 1719.0238 -0.98435843 9.403957e-39
-0.47392383 1719.0238 -0.98435843 1.0141522e-38
-0.47921908 1719.0238 -0.98435843 7.468925e-39
-0.48451433 1719.0238 -0.98435843 7.0079469e-39
-0.48980954 1719.0238 -0.98435843 9.5858218e-39
-0.49510479 1719.0238 -0.98435843 9.3092349e-39
-0.50040001 1719.0238 -0.98435843 9.3088846e-39
-0.5096972 1719.016 -0.99214822 1.004645e-38
-0.5109905 1719.0238 -0.98435843 9.127017e-39
-0.51628578 1719.0238 -0.98435843 7.3753001e-39
-0.52158099 1719.0238 -0.98435843 8.5713391e-39
-0.52687621 1719.0238 -0.98435843 8.6635348e-39
-0.53638291 1719.016 -0.99214822 7.6511709e-39
-0.5374667 1719.0238 -0.98435843 8.112149e-39
-0.54276192 1719.0238 -0.98435843 8.7553576e-39
-0.5480572 1719.0238 -0.98435843 8.3865751e-39
-0.55335242 1719.0238 -0.98435843 7.099767e-39
-0.55864763 1719.0238 -0.98435843 8.9436795e-39
-0.56394291 1719.0238 -0.98435843 8.5716698e-39
-0.56923813 1719.0238 -0.98435843 8.6638655e-39
-0.57453334 1719.0238 -0.98435843 8.4805532e-39
-0.57982862 1719.0238 -0.98435843 8.5727488e-39
-0.58512384 1719.0238 -0.98435843 7.4660482e-39
-0.59041911 1719.0238 -0.98435843 8.756787e-39
-0.59571433 1719.0238 -0.98435843 7.2827135e-39
-0.60100955 1719.0238 -0.98435843 7.8358873e-39
-0.60630482 1719.0238 -0.98435843 7.1909088e-39
-0.61160004 1719.0238 -0.98435843 7.2831044e-39
-0.61689526 1719.0238 -0.98435843 7.4667768e-39
-0.62219054 1719.0238 -0.98435843 8.5731244e-39
-0.62748575 1719.0238 -0.98435843 7.1887158e-39
-0.62731814 1719.0322 -0.9758603 8.8482371e-39
-0.63256764 1719.0322 -0.9758603 8.0185017e-39
nan nan nan 7.926306e-39
nan nan nan 8.6613473e-39
nan nan nan 7.739391e-39
nan nan nan 6.8214228e-39
nan nan nan 6.6370316e-39
nan nan nan 7.0029302e-39
nan nan nan 7.8326909e-39
nan nan nan 7.2816569e-39
nan nan nan 6.7284831e-39
nan nan nan 7.0068581e-39
nan nan nan 6.9146624e-39
nan nan nan 6.8225046e-39
nan nan nan 6.3615265e-39
nan nan nan 7.743026e-39
nan nan nan 6.1757003e-39
nan nan nan 7.1880347e-39
nan nan nan 7.4646216e-39
nan nan nan 8.3887331e-39
nan nan nan 7.7433637e-39
nan nan nan 7.5593354e-39
nan nan nan 6.1764009e-39
nan nan nan 7.0061518e-39
nan nan nan 7.8359125e-39
nan nan nan 7.0976314e-39
nan nan nan 7.0976314e-39
nan nan nan 6.8221263e-39
nan nan nan 6.1767569e-39
nan nan nan 6.5444576e-39
nan nan nan 7.0976314e-39
nan nan nan 8.4791435e-39
nan nan nan 6.7274265e-39
nan nan nan 6.8185362e-39
nan nan nan 5.1590148e-39
nan nan nan 9.5833625e-39
nan nan nan 1.0228732e-38
nan nan nan 9.1259871e-39
nan nan nan 9.8635521e-39
nan nan nan 9.4918927e-39
nan nan nan 9.5840884e-39
nan nan nan 1.9515043e-40
nan nan nan 6.8159157e-42
nan nan nan 1.0116254e-40
nan nan nan 3.7774522e-40
nan nan nan 1.937155e-40
nan nan nan 5.7397185e-42
nan nan nan 7.1746481e-43
nan nan nan 1.8510732e-40
nan nan nan 3.2285917e-42
nan nan nan 1.793662e-42
nan nan nan 4.7105993e-39
nan nan nan 4.4340124e-39
0.39052382 1719.51 -0.49035236 4.3421671e-39
0.38787621 1719.51 -0.49035236 4.2499715e-39
0.3852286 1719.51 -0.49035236 2.5947788e-39
0.38258097 1719.51 -0.49035236 3.2401482e-39
0.37993336 1719.51 -0.49035236 4.0648796e-39
0.37728575 1719.51 -0.49035236 3.9726839e-39
0.37463811 1719.51 -0.49035236 3.9704979e-39
0.37359622 1719.5078 -0.49246892 4.708063e-39
0.37200004 1719.5065 -0.49388006 3.7890031e-39
0.36933336 1719.5065 -0.49388006 3.6046119e-39
0.36823812 1719.5043 -0.49599665 2.9621193e-39
0.36556002 1719.5043 -0.49599665 2.3167499e-39
0.36443049 1719.5022 -0.4981133 3.4205738e-39
0.36174098 1719.5022 -0.4981133 3.604965e-39
0.35905147 1719.5022 -0.4981133 3.5124163e-39
0.35636193 1719.5022 -0.4981133 2.4982643e-39
0.35367242 1719.5022 -0.4981133 4.5233214e-39
0.3524743 1719.5001 -0.50022995 4.2467345e-39
0.34977335 1719.5001 -0.50022995 2.4993461e-39
0.34707239 1719.5001 -0.50022995 4.3432587e-39
0.34582859 1719.4979 -0.50234658 4.6180534e-39
0.34311622 1719.4979 -0.50234658 4.8946402e-39
0.34183812 1719.4958 -0.5044632 4.7120314e-39
0.33911431 1719.4958 -0.5044632 4.5276402e-39
0.3363905 1719.4958 -0.5044632 4.7120511e-39
0.33366668 1719.4958 -0.5044632 4.5276598e-39
0.33233145 1719.4938 -0.50657988 4.1603066e-39
0.32959622 1719.4938 -0.50657988 3.9759153e-39
0.32822669 1719.4916 -0.50869644 4.9868303e-39
0.32548001 1719.4916 -0.50869644 4.7102434e-39
0.36615241 1719.4232 -0.57713413 4.6205645e-39
0.36303622 1719.4232 -0.57713413 4.7127601e-39
0.35992002 1719.4232 -0.57713413 4.7120314e-39
0.35680383 1719.4232 -0.57713413 4.7120314e-39
0.35368764 1719.4232 -0.57713413 4.4368767e-39
0.35057145 1719.4232 -0.57713413 4.5290723e-39
0.34915432 1719.4204 -0.57995623 4.2517637e-39
0.34602287 1719.4204 -0.57995623 4.3439594e-39
0.34456003 1719.4176 -0.58277845 4.615517e-39
0.34141335 1719.4176 -0.58277845 4.4311257e-39
0.3382667 1719.4176 -0.58277845 3.6064098e-39
0.33512002 1719.4176 -0.58277845 3.4220185e-39
0.33197334 1719.4176 -0.58277845 3.9751825e-39
0.3288267 1719.4176 -0.58277845 4.343965e-39
0.32410288 1719.4204 -0.57995623 4.7098959e-39
0.32097146 1719.4204 -0.57995623 4.433309e-39
0.31784001 1719.4204 -0.57995623 4.8034984e-39
0.31317717 1719.4232 -0.57713413 4.6191071e-39
0.31006098 1719.4232 -0.57713413 7.1966415e-39
0.30694479 1719.4232 -0.57713413 5.7215114e-39
0.30234289 1719.426 -0.57431191 4.9882526e-39
0.29924193 1719.426 -0.57431191 4.9882526e-39
0.29468572 1719.4288 -0.57148981 5.2652178e-39
0.29160002 1719.4288 -0.57148981 4.8964353e-39
0.28851432 1719.4288 -0.57148981 5.725124e-39
0.28542858 1719.4288 -0.57148981 5.4485371e-39
0.28234288 1719.4288 -0.57148981 4.8056466e-39
0.27925715 1719.4288 -0.57148981 4.8056466e-39
0.27480763 1719.4316 -0.56866759 4.8049557e-39
0.27173716 1719.4316 -0.56866759 4.5283689e-39
0.26866668 1719.4316 -0.56866759 4.7113028e-39
0.26559621 1719.4316 -0.56866759 4.9878897e-39
0.26122287 1719.4346 -0.56584543 3.8829868e-39
0.25720191 1719.4366 -0.56372881 4.0673781e-39
0.25415811 1719.4366 -0.56372881 4.4351068e-39
0.25111431 1719.4366 -0.56372881 4.3429112e-39
0.24807049 1719.4366 -0.56372881 4.1588647e-39
0.24502668 1719.4366 -0.56372881 3.9744734e-39
0.24198288 1719.4366 -0.56372881 4.0655802e-39
0.23893906 1719.4366 -0.56372881 4.2499715e-39
0.23589525 1719.4366 -0.56372881 3.9740979e-39
0.23372573 1719.4346 -0.56584543 3.8819022e-39
0.2306705 1719.4346 -0.56584543 4.5265682e-39
0.22761525 1719.4346 -0.56584543 4.8953507e-39
0.22456001 1719.4346 -0.56584543 4.988956e-39
0.22150478 1719.4346 -0.56584543 6.740673e-39
0.2176324 1719.4366 -0.56372881 6.1860895e-39
0.21458858 1719.4366 -0.56372881 5.817307e-39
0.21154478 1719.4366 -0.56372881 5.5403572e-39
0.20928383 1719.4346 -0.56584543 4.9871834e-39
0.20622858 1719.4346 -0.56584543 4.8964423e-39
0.20418668 1719.4316 -0.56866759 5.4496161e-39
0.2011162 1719.4316 -0.56866759 4.1617289e-39
0.19902858 1719.4288 -0.57148981 3.7007508e-39
0.19594286 1719.4288 -0.57148981 2.4039205e-39
0.19380954 1719.426 -0.57431191 2.6805074e-39
0.19070858 1719.426 -0.57431191 3.1414533e-39
0.18760763 1719.426 -0.57431191 4.0634096e-39
0.18450668 1719.426 -0.57431191 4.5272871e-39
0.18140572 1719.426 -0.57431191 3.1443526e-39
0.17830478 1719.426 -0.57431191 2.9606648e-39
0.17692572 1719.4204 -0.57995623 2.8684692e-39
0.1737943 1719.4204 -0.57995623 3.4169836e-39
0.17149335 1719.4176 -0.58277845 3.5091793e-39
0.16916192 1719.4148 -0.58560061 3.6020839e-39
0.16600001 1719.4148 -0.58560061 3.5098883e-39
0.1628381 1719.4148 -0.58560061 3.1447057e-39
0.15967619 1719.4148 -0.58560061 3.1447057e-39
0.1565143 1719.4148 -0.58560061 3.8829868e-39
0.15335239 1719.4148 -0.58560061 3.3298131e-39
0.1509143 1719.412 -0.58842283 3.9701476e-39
0.14773715 1719.412 -0.58842283 4.4311257e-39
0.14594668 1719.4064 -0.59406716 4.9853561e-39
0.14273906 1719.4064 -0.59406716 5.4463343e-39
0.13953143 1719.4064 -0.59406716 5.1712117e-39
0.13632382 1719.4064 -0.59406716 4.9868205e-39
0.13374858 1719.4034 -0.59688926 4.5283632e-39
0.13052572 1719.4034 -0.59688926 4.7127545e-39
0.12790477 1719.4006 -0.59971148 2.8706272e-39
0.12466668 1719.4006 -0.59971148 4.161366e-39
0.12214287 1719.3971 -0.60323918 4.2510603e-39
0.11819048 1719.4006 -0.59971148 4.3432559e-39
0.11495239 1719.4006 -0.59971148 4.1588647e-39
0.12012573 1719.3556 -0.64486623 4.4354516e-39
0.11600572 1719.3591 -0.64133847 4.2514134e-39
0.11254287 1719.3591 -0.64133847 4.1592178e-39
0.10908001 1719.3591 -0.64133847 2.1230176e-39
0.1050362 1719.3625 -0.63781077 2.030822e-39
0.10159238 1719.3625 -0.63781077 1.7542351e-39
0.09771429 1719.3655 -0.63498861 1.9386264e-39
0.094285719 1719.3655 -0.63498861 3.3240845e-39
0.090857148 1719.3655 -0.63498861 3.2318889e-39
0.087428577 1719.3655 -0.63498861 2.4961161e-39
0.084000006 1719.3655 -0.63498861 1.9429424e-39
0.080123812 1719.3689 -0.63146091 2.6808437e-39
0.076714292 1719.3689 -0.63146091 3.8793869e-39
0.073304765 1719.3689 -0.63146091 4.3375008e-39
0.069895245 1719.3689 -0.63146091 3.8765226e-39
0.066114292 1719.3724 -0.6279332 4.1570752e-39
0.062723815 1719.3724 -0.6279332 3.8804883e-39
0.059333336 1719.3724 -0.6279332 4.4314789e-39
0.05594286 1719.3724 -0.6279332 4.7080658e-39
0.052847624 1719.3689 -0.63146091 4.5233214e-39
0.049161907 1719.3724 -0.6279332 4.4311257e-39
0.045771431 1719.3724 -0.6279332 1.7535373e-39
0.042380955 1719.3724 -0.6279332 1.6613416e-39
nan nan nan 2.030822e-39
nan nan nan 1.9386264e-39
nan nan nan 2.030822e-39
nan nan nan 1.9386264e-39
nan nan nan 2.0304717e-39
nan nan nan 2.0304717e-39
nan nan nan 2.1237239e-39
0.015342858 1719.3689 -0.63146091 2.0315282e-39
0.011933334 1719.3689 -0.63146091 1.7560428e-39
0.0085238097 1719.3689 -0.63146091 2.1248253e-39
0.0051142862 1719.3689 -0.63146091 2.216267e-39
0.001704762 1719.3689 -0.63146091 2.7694408e-39
-0.001704762 1719.3689 -0.63146091 3.6935705e-39
-0.0051142862 1719.3689 -0.63146091 4.3389399e-39
-0.0087047629 1719.3556 -0.64486623 4.3389399e-39
nan nan nan 3.7857661e-39
nan nan nan 4.2499715e-39
nan nan nan 4.9875365e-39
nan nan nan 4.6205589e-39
nan nan nan 4.9893414e-39
nan nan nan 5.264136e-39
-0.047228575 1719.0798 -0.92073351 4.8031579e-39
-0.052200004 1719.0798 -0.92073351 5.1690439e-39
-0.057171434 1719.0798 -0.92073351 5.6300221e-39
-0.06214286 1719.0798 -0.92073351 4.7116783e-39
-0.067114294 1719.0798 -0.92073351 4.4350914e-39
-0.072638102 1719.0728 -0.92778891 4.4351012e-39
-0.077647626 1719.0728 -0.92778891 4.4351012e-39
-0.082657151 1719.0728 -0.92778891 4.7120062e-39
-0.088333338 1719.0658 -0.93484432 4.3432237e-39
nan nan nan 8.9418817e-39
-0.10325715 1719.0199 -0.98070472 5.1618609e-39
-0.10855239 1719.0199 -0.98070472 7.1912591e-39
-0.11384763 1719.0199 -0.98070472 7.467846e-39
-0.12008572 1719.0122 -0.98846561 6.638786e-39
-0.12542287 1719.0122 -0.98846561 7.1919598e-39
-0.13076001 1719.0122 -0.98846561 8.1106973e-39
-0.13609715 1719.0122 -0.98846561 9.8624143e-39
-0.1414343 1719.0122 -0.98846561 5.0668192e-39
-0.14561906 1719.0199 -0.98070472 9.0312313e-39
-0.15210858 1719.0122 -0.98846561 7.1908471e-39
-0.15620953 1719.0199 -0.98070472 8.2049991e-39
-0.16150478 1719.0199 -0.98070472 9.8649324e-39
-0.16680001 1719.0199 -0.98070472 8.8507805e-39
-0.17209525 1719.0199 -0.98070472 7.464609e-39
-0.17739049 1719.0199 -0.98070472 8.9397391e-39
-0.18268573 1719.0199 -0.98070472 8.0210044e-39
-0.18798096 1719.0199 -0.98070472 7.9288088e-39
-0.1932762 1719.0199 -0.98070472 8.6652948e-39
-0.19857144 1719.0199 -0.98070472 7.8355341e-39
-0.20386668 1719.0199 -0.98070472 9.1237548e-39
-0.20916192 1719.0199 -0.98070472 9.584733e-39
-0.21445715 1719.0199 -0.98070472 7.2827135e-39
-0.2197524 1719.0199 -0.98070472 8.8500392e-39
-0.22504763 1719.0199 -0.98070472 5.5303057e-39
-0.23034286 1719.0199 -0.98070472 7.3742183e-39
-0.23563811 1719.0199 -0.98070472 8.5716754e-39
-0.24093334 1719.0199 -0.98070472 6.6355672e-39
-0.24622859 1719.0199 -0.98070472 8.4805308e-39
-0.25152382 1719.0199 -0.98070472 7.4663789e-39
-0.25681907 1719.0199 -0.98070472 8.5730795e-39
-0.26418859 1719.0122 -0.98846561 1.004821e-38
-0.26952574 1719.0122 -0.98846561 9.21377e-39
-0.27486289 1719.0122 -0.98846561 9.0293788e-39
-0.2802 1719.0122 -0.98846561 7.0000183e-39
-0.28553715 1719.0122 -0.98846561 9.3971047e-39
-0.2908743 1719.0122 -0.98846561 8.5741936e-39
-0.29621145 1719.0122 -0.98846561 8.8507805e-39
-0.29918098 1719.0199 -0.98070472 8.3858394e-39
-0.3044762 1719.0199 -0.98070472 8.2936438e-39
-0.30977145 1719.0199 -0.98070472 8.5698776e-39
-0.3150667 1719.0199 -0.98070472 9.5840295e-39
-0.32289717 1719.0122 -0.98846561 9.6798251e-39
-0.32823431 1719.0122 -0.98846561 8.0203037e-39
-0.33095241 1719.0199 -0.98070472 1.1796011e-38
-0.33624765 1719.0199 -0.98070472 7.7394036e-39
-0.34154287 1719.0199 -0.98070472 8.1128273e-39
-0.34958288 1719.0122 -0.98846561 9.9567399e-39
-0.35492003 1719.0122 -0.98846561 6.9110821e-39
-0.36025718 1719.0122 -0.98846561 8.939386e-39
-0.3655943 1719.0122 -0.98846561 7.7433637e-39
-0.37093145 1719.0122 -0.98846561 1.1062406e-38
-0.3762686 1719.0122 -0.98846561 8.3880045e-39
-0.38160574 1719.0122 -0.98846561 1.0324113e-38
-0.38694289 1719.0122 -0.98846561 1.0047914e-38
-0.39228001 1719.0122 -0.98846561 7.5586319e-39
-0.39449528 1719.0199 -0.98070472 9.6819733e-39
-0.3997905 1719.0199 -0.98070472 8.760017e-39
-0.40508574 1719.0199 -0.98070472 1.0049326e-38
-0.41038099 1719.0199 -0.98070472 9.0351745e-39
-0.41567621 1719.0199 -0.98070472 8.4802281e-39
-0.42430288 1719.0122 -0.98846561 1.0416336e-38
-0.4262667 1719.0199 -0.98070472 1.0601053e-38
-0.43156195 1719.0199 -0.98070472 9.9556833e-39
-0.43685716 1719.0199 -0.98070472 1.0048257e-38
-0.44215241 1719.0199 -0.98070472 7.2823884e-39
-0.44744766 1719.0199 -0.98070472 9.032648e-39
-0.45274287 1719.0199 -0.98070472 1.0231191e-38
-0.45803812 1719.0199 -0.98070472 8.8493638e-39
-0.46333337 1719.0199 -0.98070472 8.9415594e-39
-0.46862862 1719.0199 -0.98070472 1.0782926e-38
-0.47392383 1719.0199 -0.98070472 1.0321948e-38
-0.47921908 1719.0199 -0.98070472 9.2148967e-39
-0.48451433 1719.0199 -0.98070472 9.9524617e-39
-0.48980954 1719.0199 -0.98070472 8.7575184e-39
-0.49510479 1719.0199 -0.98070472 7.0979971e-39
-0.50040001 1719.0199 -0.98070472 9.5861973e-39
-0.50569528 1719.0199 -0.98070472 8.9408279e-39
-0.5109905 1719.0199 -0.98070472 9.2188469e-39
-0.51628578 1719.0199 -0.98070472 1.0325194e-38
-0.52158099 1719.0199 -0.98070472 8.6656703e-39
-0.52687621 1719.0199 -0.98070472 7.5593228e-39
-0.53217149 1719.0199 -0.98070472 6.2729154e-39
-0.5374667 1719.0199 -0.98070472 6.5495023e-39
-0.54276192 1719.0199 -0.98070472 1.0414143e-38
-0.5480572 1719.0199 -0.98070472 8.9390132e-39
-0.54857528 1719.0284 -0.97223812 8.4819825e-39
-0.55864763 1719.0199 -0.98070472 9.0351563e-39
-0.55907434 1719.0284 -0.97223812 7.3742057e-39
-0.56432384 1719.0284 -0.97223812 8.2961619e-39
-0.57453334 1719.0199 -0.98070472 6.3607698e-39
-0.57982862 1719.0199 -0.98070472 7.9280955e-39
-0.58512384 1719.0199 -0.98070472 8.2950829e-39
-0.59041911 1719.0199 -0.98070472 8.7560611e-39
-0.59571433 1719.0199 -0.98070472 8.2050453e-39
-0.60100955 1719.0199 -0.98070472 6.3611327e-39
-0.60630482 1719.0199 -0.98070472 6.2685742e-39
-0.61160004 1719.0199 -0.98070472 5.5310091e-39
-0.61689526 1719.0199 -0.98070472 7.8366313e-39
-0.62219054 1719.0199 -0.98070472 8.3898051e-39
-0.62748575 1719.0199 -0.98070472 8.4819853e-39
-0.62731814 1719.0284 -0.97223812 5.6239208e-39
-0.63256764 1719.0284 -0.97223812 8.3883926e-39
nan nan nan 7.8352188e-39
nan nan nan 8.1114204e-39
nan nan nan 7.3738553e-39
nan nan nan 7.8366285e-39
nan nan nan 5.3473465e-39
nan nan nan 7.7440826e-39
nan nan nan 8.5738433e-39
nan nan nan 7.0043497e-39
nan nan nan 8.0185017e-39
nan nan nan 5.901221e-39
nan nan nan 7.7451336e-39
nan nan nan 7.0983572e-39
nan nan nan 7.0061616e-39
nan nan nan 7.7426631e-39
nan nan nan 7.3738805e-39
nan nan nan 8.0203135e-39
nan nan nan 7.5593354e-39
nan nan nan 7.097281e-39
nan nan nan 7.5582592e-39
nan nan nan 7.1912816e-39
nan nan nan 6.1771296e-39
nan nan nan 6.0874451e-39
nan nan nan 7.101597e-39
nan nan nan 4.9818164e-39
nan nan nan 6.6413378e-39
nan nan nan 5.9948992e-39
nan nan nan 4.0587909e-39
nan nan nan 6.727079e-39
nan nan nan 6.727079e-39
nan nan nan 7.2823856e-39
nan nan nan 5.8994511e-39
nan nan nan 6.5408703e-39
nan nan nan 6.8174572e-39
nan nan nan 9.9532338e-39
nan nan nan 9.9532338e-39
nan nan nan 9.3100252e-39
nan nan nan 9.125634e-39
nan nan nan 8.3869927e-39
nan nan nan 8.8479709e-39
nan nan nan 1.9407423e-40
nan nan nan 1.9407423e-40
nan nan nan 4.6958072e-40
nan nan nan 5.7397185e-42
nan nan nan 3.5873241e-42
nan nan nan 1.793662e-42
nan nan nan 2.1523944e-42
nan nan nan 1.5694767e-39
nan nan nan 1.9335677e-40
nan nan nan 8.6095778e-42
nan nan nan 5.4485301e-39
0.39317146 1719.5081 -0.48852551 4.8031607e-39
0.39052382 1719.5081 -0.48852551 4.3432559e-39
0.38787621 1719.5081 -0.48852551 4.5276472e-39
0.3852286 1719.5081 -0.48852551 3.8819331e-39
0.38258097 1719.5081 -0.48852551 3.9741287e-39
0.37993336 1719.5081 -0.48852551 4.6194827e-39
0.37728575 1719.5081 -0.48852551 3.6053308e-39
0.37463811 1719.5081 -0.48852551 4.3389301e-39
0.3719905 1719.5081 -0.48852551 4.615517e-39
0.37093717 1719.506 -0.4906342 4.3385798e-39
0.36933336 1719.5045 -0.49204007 4.2463842e-39
0.36823812 1719.5024 -0.49414876 3.6046119e-39
0.36712003 1719.5002 -0.49625751 3.6968075e-39
0.36443049 1719.5002 -0.49625751 4.3389399e-39
0.36174098 1719.5002 -0.49625751 4.4311356e-39
0.35905147 1719.5002 -0.49625751 4.06559e-39
0.35787621 1719.4982 -0.49836627 3.7890031e-39
0.35517526 1719.4982 -0.49836627 3.881189e-39
0.3524743 1719.4982 -0.49836627 4.2499715e-39
0.35125336 1719.496 -0.50047505 4.1588703e-39
0.34707239 1719.4982 -0.49836627 4.1588703e-39
0.34582859 1719.496 -0.50047505 4.8035236e-39
0.34311622 1719.496 -0.50047505 4.4347411e-39
0.34183812 1719.4939 -0.5025838 5.5403572e-39
0.33911431 1719.4939 -0.5025838 5.1715747e-39
0.3363905 1719.4939 -0.5025838 5.1715901e-39
0.33366668 1719.4939 -0.5025838 5.0793944e-39
0.33094287 1719.4939 -0.5025838 5.263057e-39
0.33097336 1719.4896 -0.50680125 4.9864701e-39
0.32822669 1719.4896 -0.50680125 4.0677578e-39
0.32548001 1719.4896 -0.50680125 4.2521491e-39
nan nan nan 4.3446979e-39
0.32131812 1719.4875 -0.50891 4.3446979e-39
0.31856003 1719.4875 -0.50891 4.2510603e-39
nan nan nan 3.6978865e-39
0.31174669 1719.4896 -0.50680125 4.0673725e-39
0.31028575 1719.4875 -0.50891 2.3156555e-39
0.30752763 1719.4875 -0.50891 2.8681188e-39
0.30603239 1719.4854 -0.51101875 2.591532e-39
0.30451432 1719.4833 -0.51312745 3.7890031e-39
0.30173334 1719.4833 -0.51312745 3.4202206e-39
0.30059049 1719.4805 -0.51593912 4.4311257e-39
nan nan nan 4.5233214e-39
0.33197334 1719.4153 -0.5806073 4.7999083e-39
0.3288267 1719.4153 -0.5806073 4.615517e-39
0.32568002 1719.4153 -0.5806073 3.9733944e-39
0.32097146 1719.4182 -0.57779557 4.7109594e-39
0.31784001 1719.4182 -0.57779557 4.8953437e-39
0.31317717 1719.421 -0.57498395 4.8953437e-39
0.31006098 1719.421 -0.57498395 4.6198358e-39
0.30544382 1719.4238 -0.57217222 4.8964227e-39
0.30234289 1719.4238 -0.57217222 4.1595737e-39
0.29777145 1719.4266 -0.56936067 4.5283562e-39
0.29468572 1719.4266 -0.56936067 4.3432615e-39
0.29160002 1719.4266 -0.56936067 4.5276528e-39
0.28851432 1719.4266 -0.56936067 5.2634326e-39
0.28542858 1719.4266 -0.56936067 4.7102588e-39
0.28234288 1719.4266 -0.56936067 6.0009724e-39
0.27787811 1719.4294 -0.566549 6.2775593e-39
0.27480763 1719.4294 -0.566549 3.7000445e-39
0.2703886 1719.4324 -0.56373733 4.3454139e-39
0.26733336 1719.4324 -0.56373733 4.3421671e-39
0.26427811 1719.4324 -0.56373733 4.8953409e-39
0.26024574 1719.4344 -0.56162858 4.7120314e-39
0.25720191 1719.4344 -0.56162858 3.9744664e-39
0.25415811 1719.4344 -0.56162858 5.0783225e-39
0.25111431 1719.4344 -0.56162858 4.2485618e-39
0.24807049 1719.4344 -0.56162858 4.6177002e-39
0.24502668 1719.4344 -0.56162858 4.433309e-39
0.24198288 1719.4344 -0.56162858 4.2506847e-39
0.23893906 1719.4344 -0.56162858 3.9740979e-39
0.23589525 1719.4344 -0.56162858 3.6064098e-39
0.23372573 1719.4324 -0.56373733 3.5142141e-39
0.22980763 1719.4344 -0.56162858 4.2492708e-39
0.22761525 1719.4324 -0.56373733 3.4195102e-39
0.22372001 1719.4344 -0.56162858 2.8655853e-39
0.2206762 1719.4344 -0.56162858 3.3265634e-39
0.2176324 1719.4344 -0.56162858 3.4190982e-39
0.21458858 1719.4344 -0.56162858 5.7239889e-39
0.21154478 1719.4344 -0.56162858 4.4379655e-39
0.20928383 1719.4324 -0.56373733 4.6223567e-39
0.20622858 1719.4324 -0.56373733 6.0935436e-39
0.20418668 1719.4294 -0.566549 5.1715873e-39
0.2021143 1719.4266 -0.56936067 4.8971388e-39
0.19902858 1719.4266 -0.56936067 1.1171179e-39
0.19594286 1719.4266 -0.56936067 1.9439989e-39
0.19380954 1719.4238 -0.57217222 4.1566941e-39
0.19070858 1719.4238 -0.57217222 3.9704979e-39
0.18760763 1719.4238 -0.57217222 4.3392804e-39
0.18541335 1719.421 -0.57498395 3.0525101e-39
0.18140572 1719.4238 -0.57217222 2.6837276e-39
0.18180953 1719.4125 -0.58341891 2.4968028e-39
0.17864764 1719.4125 -0.58341891 3.0499766e-39
0.17548573 1719.4125 -0.58341891 3.1411058e-39
0.17315429 1719.4097 -0.58623058 3.6020839e-39
0.16997716 1719.4097 -0.58623058 2.9606648e-39
0.16680001 1719.4097 -0.58623058 3.2372517e-39
0.16362287 1719.4097 -0.58623058 4.0655802e-39
0.16044572 1719.4097 -0.58623058 3.5124064e-39
0.15726858 1719.4097 -0.58623058 4.1577759e-39
0.15409143 1719.4097 -0.58623058 4.1577759e-39
0.1509143 1719.4097 -0.58623058 4.3396434e-39
0.14844573 1719.4069 -0.58904225 4.7084259e-39
0.14594668 1719.4041 -0.59185392 4.621991e-39
0.14273906 1719.4041 -0.59185392 4.621991e-39
0.13953143 1719.4041 -0.59185392 4.5272871e-39
0.13697144 1719.4011 -0.59466547 4.7116783e-39
0.13438097 1719.3983 -0.5974772 4.7120258e-39
0.13114287 1719.3983 -0.5974772 4.5276346e-39
0.12865715 1719.3948 -0.60099179 4.7120258e-39
0.12540001 1719.3948 -0.60099179 4.5276346e-39
0.12214287 1719.3948 -0.60099179 4.3432559e-39
0.11888573 1719.3948 -0.60099179 3.9744734e-39
0.12360763 1719.353 -0.64246368 4.3439594e-39
0.12012573 1719.353 -0.64246368 5.2659157e-39
0.11600572 1719.3566 -0.6389491 4.3443447e-39
0.11254287 1719.3566 -0.6389491 2.039454e-39
0.10908001 1719.3566 -0.6389491 2.1255344e-39
0.1061981 1719.353 -0.64246368 1.7567518e-39
0.10215429 1719.3566 -0.6389491 6.4933508e-40
nan nan nan 4.5215515e-39
0.09470477 1719.3601 -0.63543457 3.784327e-39
0.091260955 1719.3601 -0.63543457 3.5077401e-39
0.088302866 1719.3566 -0.6389491 2.9552824e-39
0.08437334 1719.3601 -0.63543457 2.6786955e-39
0.080571435 1719.3629 -0.6326229 8.3695073e-40
0.077142864 1719.3629 -0.6326229 3.9716021e-39
0.073714294 1719.3629 -0.6326229 2.4968252e-39
0.070285723 1719.3629 -0.6326229 4.0641509e-39
0.066857144 1719.3629 -0.6326229 4.5229711e-39
0.063428573 1719.3629 -0.6326229 4.5229711e-39
0.059666671 1719.3665 -0.62910837 4.7066336e-39
0.056257147 1719.3665 -0.62910837 4.7066336e-39
0.052847624 1719.3665 -0.62910837 4.7069868e-39
0.0494381 1719.3665 -0.62910837 4.7991824e-39
0.046285719 1719.3629 -0.6326229 1.938276e-39
0.04261905 1719.3665 -0.62910837 1.938276e-39
nan nan nan 1.938276e-39
nan nan nan 2.1226673e-39
nan nan nan 2.030822e-39
nan nan nan 2.030822e-39
nan nan nan 2.0304717e-39
nan nan nan 2.0304717e-39
nan nan nan 2.030822e-39
nan nan nan 2.030822e-39
0.012053334 1719.3601 -0.63543457 2.1226701e-39
0.0085714292 1719.3629 -0.6326229 2.1226701e-39
0.0051428573 1719.3629 -0.6326229 2.1237239e-39
0.0017142858 1719.3629 -0.6326229 2.584702e-39
-0.0017314287 1719.3566 -0.6389491 3.5098883e-39
-0.0052228575 1719.353 -0.64246368 3.6020839e-39
-0.0087523814 1719.3495 -0.64597827 4.2431472e-39
-0.012253334 1719.3495 -0.64597827 4.6119297e-39
-0.015754286 1719.3495 -0.64597827 4.5276402e-39
-0.019360002 1719.3459 -0.64949286 4.8964227e-39
nan nan nan 5.6296717e-39
nan nan nan 6.2750411e-39
nan nan nan 5.1723159e-39
-0.047228575 1719.0763 -0.91730326 4.7113378e-39
-0.052200004 1719.0763 -0.91730326 4.9842995e-39
-0.057171434 1719.0763 -0.91730326 5.5374733e-39
-0.06214286 1719.0763 -0.91730326 5.1708614e-39
-0.067114294 1719.0763 -0.91730326 5.0786658e-39
-0.072085716 1719.0763 -0.91730326 4.8042523e-39
-0.077647626 1719.0692 -0.92433232 4.5276654e-39
-0.082657151 1719.0692 -0.92433232 4.3443027e-39
-0.087666675 1719.0692 -0.92433232 5.3584546e-39
-0.0926762 1719.0692 -0.92433232 8.3890274e-39
-0.10325715 1719.0161 -0.97705102 7.5592667e-39
-0.10855239 1719.0161 -0.97705102 6.8217479e-39
-0.11384763 1719.0161 -0.97705102 8.296878e-39
-0.12008572 1719.0083 -0.98478293 7.1944933e-39
-0.12542287 1719.0083 -0.98478293 6.3647327e-39
-0.13076001 1719.0083 -0.98478293 8.8471679e-39
-0.13609715 1719.0083 -0.98478293 1.0045711e-38
-0.1414343 1719.0083 -0.98478293 9.3067266e-39
-0.14561906 1719.0161 -0.97705102 9.7677047e-39
-0.15210858 1719.0083 -0.98478293 9.309588e-39
-0.15620953 1719.0161 -0.97705102 6.820306e-39
-0.16150478 1719.0161 -0.97705102 9.7676893e-39
-0.16680001 1719.0161 -0.97705102 8.845733e-39
-0.17209525 1719.0161 -0.97705102 6.4565808e-39
-0.17739049 1719.0161 -0.97705102 4.3360813e-39
-0.18268573 1719.0161 -0.97705102 7.4656628e-39
-0.18798096 1719.0161 -0.97705102 1.0139336e-38
-0.1932762 1719.0161 -0.97705102 9.1259226e-39
-0.19857144 1719.0161 -0.97705102 8.7571401e-39
-0.20386668 1719.0161 -0.97705102 8.2975913e-39
-0.20916192 1719.0161 -0.97705102 8.2053956e-39
-0.21445715 1719.0161 -0.97705102 7.369154e-39
-0.2197524 1719.0161 -0.97705102 1.1333566e-38
-0.22504763 1719.0161 -0.97705102 8.1938574e-39
-0.23034286 1719.0161 -0.97705102 1.0406552e-38
-0.23563811 1719.0161 -0.97705102 8.3890863e-39
-0.24093334 1719.0161 -0.97705102 7.46713e-39
-0.24622859 1719.0161 -0.97705102 5.8983371e-39
-0.25152382 1719.0161 -0.97705102 9.1251841e-39
-0.25885144 1719.0083 -0.98478293 8.4830517e-39
-0.26418859 1719.0083 -0.98478293 8.2064648e-39
-0.26952574 1719.0083 -0.98478293 9.0376576e-39
-0.27486289 1719.0083 -0.98478293 8.4844839e-39
-0.2802 1719.0083 -0.98478293 8.5741964e-39
-0.28553715 1719.0083 -0.98478293 8.1132182e-39
-0.2908743 1719.0083 -0.98478293 7.1923409e-39
-0.29621145 1719.0083 -0.98478293 7.5611235e-39
-0.3015486 1719.0083 -0.98478293 6.5494798e-39
-0.30688575 1719.0083 -0.98478293 7.1026536e-39
-0.30977145 1719.0161 -0.97705102 9.2181182e-39
-0.31756002 1719.0083 -0.98478293 8.8493357e-39
-0.32289717 1719.0083 -0.98478293 9.0341025e-39
-0.32823431 1719.0083 -0.98478293 8.3887331e-39
-0.33095241 1719.0161 -0.97705102 9.2166889e-39
-0.33624765 1719.0161 -0.97705102 9.6776671e-39
-0.34154287 1719.0161 -0.97705102 8.6660235e-39
-0.34958288 1719.0083 -0.98478293 8.2050453e-39
-0.35492003 1719.0083 -0.98478293 6.2689497e-39
-0.36025718 1719.0083 -0.98478293 9.1270142e-39
-0.3655943 1719.0083 -0.98478293 8.7586073e-39
-0.37093145 1719.0083 -0.98478293 1.1063498e-38
-0.3762686 1719.0083 -0.98478293 7.7444329e-39
-0.38160574 1719.0083 -0.98478293 1.0233715e-38
-0.38694289 1719.0083 -0.98478293 6.9136185e-39
-0.39228001 1719.0083 -0.98478293 7.8355748e-39
-0.39449528 1719.0161 -0.97705102 8.5734747e-39
-0.3997905 1719.0161 -0.97705102 8.4812791e-39
-0.40508574 1719.0161 -0.97705102 9.8642163e-39
-0.41038099 1719.0161 -0.97705102 1.1800325e-38
-0.41567621 1719.0161 -0.97705102 9.122701e-39
-0.42097145 1719.0161 -0.97705102 1.0597831e-38
-0.4262667 1719.0161 -0.97705102 9.4936261e-39
-0.43156195 1719.0161 -0.97705102 1.0323387e-38
-0.43685716 1719.0161 -0.97705102 7.7423127e-39
-0.44215241 1719.0161 -0.97705102 8.2954865e-39
-0.44744766 1719.0161 -0.97705102 9.9531652e-39
-0.45274287 1719.0161 -0.97705102 1.069073e-38
-0.45803812 1719.0161 -0.97705102 9.1291876e-39
-0.46333337 1719.0161 -0.97705102 6.1789275e-39
-0.46862862 1719.0161 -0.97705102 7.5600641e-39
-0.47392383 1719.0161 -0.97705102 7.3756728e-39
-0.47921908 1719.0161 -0.97705102 9.2181463e-39
-0.48451433 1719.0161 -0.97705102 8.7571681e-39
-0.48980954 1719.0161 -0.97705102 9.7720305e-39
-0.49510479 1719.0161 -0.97705102 7.4671398e-39
-0.50040001 1719.0161 -0.97705102 9.3096328e-39
-0.50569528 1719.0161 -0.97705102 8.2032853e-39
-0.5109905 1719.0161 -0.97705102 7.8355622e-39
-0.51628578 1719.0161 -0.97705102 7.0979971e-39
-0.52158099 1719.0161 -0.97705102 8.5745467e-39
-0.52687621 1719.0161 -0.97705102 8.8511336e-39
-0.53217149 1719.0161 -0.97705102 8.2043419e-39
-0.5374667 1719.0161 -0.97705102 7.927755e-39
-0.54276192 1719.0161 -0.97705102 8.8486099e-39
-0.54332572 1719.0247 -0.96861595 8.4798273e-39
-0.54857528 1719.0247 -0.96861595 8.9415314e-39
-0.55382478 1719.0247 -0.96861595 9.771292e-39
-0.55907434 1719.0247 -0.96861595 6.4529654e-39
-0.56432384 1719.0247 -0.96861595 8.5734649e-39
-0.57453334 1719.0161 -0.97705102 7.9281053e-39
-0.57982862 1719.0161 -0.97705102 7.4671272e-39
-0.58512384 1719.0161 -0.97705102 9.6801908e-39
-0.59041911 1719.0161 -0.97705102 8.2050607e-39
-0.59571433 1719.0161 -0.97705102 7.9281053e-39
-0.60100955 1719.0161 -0.97705102 7.006149e-39
-0.60630482 1719.0161 -0.97705102 7.28201e-39
-0.61160004 1719.0161 -0.97705102 8.6649445e-39
-0.61689526 1719.0161 -0.97705102 7.838809e-39
-0.62219054 1719.0161 -0.97705102 8.0232002e-39
-0.62748575 1719.0161 -0.97705102 6.8178075e-39
-0.62731814 1719.0247 -0.96861595 8.2007419e-39
-0.63256764 1719.0247 -0.96861595 8.2036412e-39
nan nan nan 7.5582718e-39
nan nan nan 7.928827e-39
nan nan nan 7.0990663e-39
nan nan nan 7.6522373e-39
nan nan nan 7.3756504e-39
nan nan nan 7.5589725e-39
nan nan nan 7.5589725e-39
nan nan nan 7.5589753e-39
nan nan nan 8.2965403e-39
nan nan nan 7.9295304e-39
nan nan nan 8.5748998e-39
nan nan nan 7.3749441e-39
nan nan nan 6.1764009e-39
nan nan nan 7.1884173e-39
nan nan nan 6.4508523e-39
nan nan nan 8.4809063e-39
nan nan nan 7.9277326e-39
nan nan nan 7.099795e-39
nan nan nan 5.4402736e-39
nan nan nan 7.2813038e-39
nan nan nan 7.1891081e-39
nan nan nan 7.1912619e-39
nan nan nan 7.6522401e-39
nan nan nan 6.1810701e-39
nan nan nan 5.9044832e-39
nan nan nan 6.8217732e-39
nan nan nan 6.360795e-39
nan nan nan 7.3717254e-39
nan nan nan 6.5419647e-39
nan nan nan 7.6504394e-39
nan nan nan 7.4660482e-39
nan nan nan 4.0566455e-39
nan nan nan 6.9147101e-39
nan nan nan 9.4944165e-39
nan nan nan 9.4022208e-39
nan nan nan 9.0338069e-39
nan nan nan 9.2181981e-39
nan nan nan 8.3866368e-39
nan nan nan 9.1242018e-39
nan nan nan 3.2285917e-42
nan nan nan 3.2285917e-42
nan nan nan 3.2285917e-42
nan nan nan 2.5111268e-42
nan nan nan 1.0761972e-42
nan nan nan 1.0761972e-42
nan nan nan 0
nan nan nan 1.0141519e-39
nan nan nan 2.8734466e-40
0.39846671 1719.5061 -0.48669863 1.029562e-40
0.39581907 1719.5061 -0.48669863 5.2652178e-39
0.39317146 1719.5061 -0.48669863 4.7120441e-39
0.39052382 1719.5061 -0.48669863 4.8042271e-39
0.38787621 1719.5061 -0.48669863 4.6198358e-39
0.3852286 1719.5061 -0.48669863 4.0649118e-39
0.38092956 1719.5083 -0.48459777 3.8805205e-39
0.37993336 1719.5061 -0.48669863 4.1577857e-39
0.37728575 1719.5061 -0.48669863 4.3421769e-39
0.37463811 1719.5061 -0.48669863 4.0663187e-39
0.3719905 1719.5061 -0.48669863 3.5131449e-39
0.37093717 1719.504 -0.48879945 3.9694441e-39
0.36933336 1719.5026 -0.49020007 3.9694441e-39
0.36823812 1719.5005 -0.49230087 4.3385798e-39
0.36712003 1719.4983 -0.49440175 4.5229711e-39
0.36443049 1719.4983 -0.49440175 2.96106e-39
0.36174098 1719.4983 -0.49440175 2.96106e-39
0.35905147 1719.4983 -0.49440175 4.0641761e-39
0.35636193 1719.4983 -0.49440175 3.8797849e-39
0.35517526 1719.4962 -0.49650261 3.7890031e-39
0.35396573 1719.494 -0.49860349 3.7890031e-39
0.35125336 1719.494 -0.49860349 3.6064098e-39
0.34707239 1719.4962 -0.49650261 2.8688447e-39
0.34582859 1719.494 -0.49860349 3.6968075e-39
0.34456193 1719.4919 -0.50070435 4.6187638e-39
0.34183812 1719.4919 -0.50070435 5.2644892e-39
0.33911431 1719.4919 -0.50070435 5.0800979e-39
0.3363905 1719.4919 -0.50070435 4.711328e-39
0.33366668 1719.4919 -0.50070435 4.8035236e-39
0.33094287 1719.4919 -0.50070435 5.0800979e-39
0.32959622 1719.4899 -0.50280523 4.8957066e-39
0.32822669 1719.4877 -0.50490606 4.6205645e-39
0.32548001 1719.4877 -0.50490606 4.5283689e-39
0.32407621 1719.4856 -0.50700688 4.5276402e-39
0.32131812 1719.4856 -0.50700688 4.5276402e-39
0.31856003 1719.4856 -0.50700688 3.4238262e-39
0.31580192 1719.4856 -0.50700688 2.7784568e-39
0.31304383 1719.4856 -0.50700688 3.5127694e-39
0.31028575 1719.4856 -0.50700688 3.6971606e-39
0.30880192 1719.4834 -0.50910777 3.5127694e-39
0.30603239 1719.4834 -0.50910777 3.604965e-39
0.30451432 1719.4813 -0.51120859 3.5124163e-39
0.30173334 1719.4813 -0.51120859 3.7890031e-39
0.2989524 1719.4813 -0.51120859 4.4343627e-39
0.29779431 1719.4784 -0.51400977 4.8953409e-39
nan nan nan 4.8953437e-39
0.3288267 1719.4131 -0.57843608 4.5265612e-39
0.29571432 1719.467 -0.52521437 5.1722935e-39
nan nan nan 4.7113154e-39
0.31938669 1719.4131 -0.57843608 4.7116783e-39
0.31624001 1719.4131 -0.57843608 4.8960696e-39
0.30854478 1719.4216 -0.5700326 4.9871862e-39
0.30544382 1719.4216 -0.5700326 4.8949906e-39
0.30234289 1719.4216 -0.5700326 4.6198358e-39
0.29777145 1719.4244 -0.56723154 4.4354445e-39
0.29468572 1719.4244 -0.56723154 4.8027949e-39
0.29160002 1719.4244 -0.56723154 4.8949906e-39
0.28851432 1719.4244 -0.56723154 4.5272871e-39
0.28401905 1719.4272 -0.56443036 4.5272871e-39
0.28234288 1719.4244 -0.56723154 5.3556058e-39
0.27649906 1719.4302 -0.56162924 4.9868233e-39
0.27344382 1719.4302 -0.56162924 5.2652178e-39
0.2703886 1719.4302 -0.56162924 5.0808266e-39
0.26733336 1719.4302 -0.56162924 4.7120511e-39
0.26427811 1719.4302 -0.56162924 4.7120511e-39
0.26024574 1719.4323 -0.55952835 3.1443526e-39
0.25720191 1719.4323 -0.55952835 4.0663089e-39
0.25288573 1719.4351 -0.55672717 4.5283632e-39
0.25111431 1719.4323 -0.55952835 4.5283632e-39
0.24807049 1719.4323 -0.55952835 4.8035236e-39
0.24502668 1719.4323 -0.55952835 4.711328e-39
0.24198288 1719.4323 -0.55952835 3.8851266e-39
0.23893906 1719.4323 -0.55952835 3.792931e-39
0.23589525 1719.4323 -0.55952835 5.4474483e-39
0.23285145 1719.4323 -0.55952835 3.8801226e-39
0.22980763 1719.4323 -0.55952835 3.8822778e-39
0.22676383 1719.4323 -0.55952835 3.5134953e-39
0.22372001 1719.4323 -0.55952835 3.6020839e-39
0.2206762 1719.4323 -0.55952835 3.9708665e-39
0.2176324 1719.4323 -0.55952835 3.9701574e-39
0.21458858 1719.4323 -0.55952835 3.5091793e-39
0.21154478 1719.4323 -0.55952835 2.4996965e-39
0.20850097 1719.4323 -0.55952835 3.9748265e-39
0.20622858 1719.4302 -0.56162924 4.2517637e-39
0.20418668 1719.4272 -0.56443036 4.8049375e-39
0.2021143 1719.4244 -0.56723154 4.8042215e-39
0.19902858 1719.4244 -0.56723154 5.0808084e-39
0.19594286 1719.4244 -0.56723154 6.0009724e-39
0.19380954 1719.4216 -0.5700326 2.7741253e-39
0.19070858 1719.4216 -0.5700326 2.4989958e-39
0.18760763 1719.4216 -0.5700326 1.4848439e-39
0.18541335 1719.4187 -0.57283378 3.0471221e-39
0.18497144 1719.4103 -0.5812372 3.0471221e-39
0.18268573 1719.4073 -0.58403838 2.864879e-39
0.17950858 1719.4073 -0.58403838 3.6946397e-39
0.17633145 1719.4073 -0.58403838 3.3258474e-39
0.17315429 1719.4073 -0.58403838 2.680478e-39
0.16997716 1719.4073 -0.58403838 3.9704979e-39
0.16680001 1719.4073 -0.58403838 3.7861067e-39
0.16362287 1719.4073 -0.58403838 3.881189e-39
0.16044572 1719.4073 -0.58403838 4.0655802e-39
0.15726858 1719.4073 -0.58403838 4.1577759e-39
0.15409143 1719.4073 -0.58403838 4.8031453e-39
0.15163811 1719.4045 -0.5868395 4.6198106e-39
0.14844573 1719.4045 -0.5868395 4.3432237e-39
0.14594668 1719.4017 -0.58964068 4.7138013e-39
0.14273906 1719.4017 -0.58964068 4.8981925e-39
0.1401943 1719.3988 -0.59244174 4.3457643e-39
0.13697144 1719.3988 -0.59244174 3.8847861e-39
0.13438097 1719.396 -0.59524292 4.8059969e-39
0.13191429 1719.3925 -0.59874433 4.4372144e-39
0.12865715 1719.3925 -0.59874433 4.6212679e-39
0.12598668 1719.3896 -0.60154545 4.5290723e-39
0.1227143 1719.3896 -0.60154545 4.3443447e-39
0.11944191 1719.3896 -0.60154545 4.0677578e-39
0.12360763 1719.3506 -0.6400612 4.4383032e-39
0.12012573 1719.3506 -0.6400612 4.5304988e-39
0.11600572 1719.3541 -0.63655972 5.5403572e-39
0.11254287 1719.3541 -0.63655972 2.590097e-39
0.10908001 1719.3541 -0.63655972 1.3879665e-39
0.1061981 1719.3506 -0.6400612 1.4801621e-39
0.1027162 1719.3506 -0.6400612 8.3624448e-40
0.09923429 1719.3506 -0.6400612 3.6021134e-39
0.095752388 1719.3506 -0.6400612 3.3287439e-39
nan nan nan 2.4989832e-39
0.088788576 1719.3506 -0.6400612 2.8641784e-39
0.085306674 1719.3506 -0.6400612 3.0485697e-39
0.081377149 1719.3541 -0.63655972 1.1113796e-39
0.077485718 1719.3577 -0.63305831 3.2318791e-39
0.07404191 1719.3577 -0.63305831 4.6191071e-39
0.070598103 1719.3577 -0.63305831 3.7893465e-39
0.066857144 1719.3605 -0.63025719 4.7999083e-39
0.063428573 1719.3605 -0.63025719 4.1545389e-39
0.060000002 1719.3605 -0.63025719 4.1577857e-39
0.056571431 1719.3605 -0.63025719 4.1577857e-39
0.053142861 1719.3605 -0.63025719 4.4311257e-39
0.04971429 1719.3605 -0.63025719 4.7077126e-39
0.046491433 1719.3577 -0.63305831 1.7538848e-39
0.042857144 1719.3605 -0.63025719 1.938276e-39
nan nan nan 1.6638471e-39
nan nan nan 1.5716515e-39
