# .PCD v0.7 - Point Cloud Data file format
VERSION 0.7
FIELDS x y z rgb
SIZE 4 4 4 4
TYPE F F F F
COUNT 1 1 1 1
WIDTH 1124
HEIGHT 1
VIEWPOINT 0 0 0 1 0 0 0
POINTS 1124
DATA ascii
0.56705719 0.24157144 1.335 7.4671272e-39
0.5721429 0.24157144 1.335 7.4671272e-39
0.58198482 0.24356192 1.3460001 6.8217577e-39
0.58231431 0.24157144 1.335 6.9132401e-39
0.58740002 0.24157144 1.335 7.0976314e-39
0.59736764 0.24356192 1.3460001 8.1099882e-39
0.60249525 0.24356192 1.3460001 8.2943795e-39
0.60762292 0.24356192 1.3460001 7.7411987e-39
0.61275053 0.24356192 1.3460001 8.2021769e-39
0.61787814 0.24356192 1.3460001 7.6515212e-39
0.62300575 0.24356192 1.3460001 7.5593256e-39
0.62813336 0.24356192 1.3460001 7.2834576e-39
0.63326097 0.24356192 1.3460001 6.7302838e-39
0.63838863 0.24356192 1.3460001 6.8210473e-39
0.64351624 0.24356192 1.3460001 7.0976342e-39
0.64864385 0.24356192 1.3460001 7.4642559e-39
0.65377146 0.24356192 1.3460001 7.7408428e-39
0.65889907 0.24356192 1.3460001 7.6500891e-39
0.66402674 0.24356192 1.3460001 7.6500891e-39
0.66915435 0.24356192 1.3460001 7.1912591e-39
0.67428195 0.24356192 1.3460001 7.6522373e-39
0.67940956 0.24356192 1.3460001 7.2802276e-39
0.68453717 0.24356192 1.3460001 7.7412057e-39
0.68966478 0.24356192 1.3460001 7.3749315e-39
0.69479245 0.24356192 1.3460001 8.0203009e-39
0.69992006 0.24356192 1.3460001 6.2693028e-39
0.70504767 0.24356192 1.3460001 7.6522373e-39
0.71017528 0.24356192 1.3460001 7.1909088e-39
0.71530288 0.24356192 1.3460001 7.3753001e-39
nan nan nan 7.6515212e-39
nan nan nan 7.1905431e-39
nan nan nan 6.6380854e-39
nan nan nan 7.3756504e-39
nan nan nan 8.115386e-39
nan nan nan 8.8529511e-39
nan nan nan 7.0990915e-39
nan nan nan 3.1346794e-39
nan nan nan 2.3981528e-39
nan nan nan 3.0435222e-39
nan nan nan 3.0442158e-39
nan nan nan 8.2071711e-39
nan nan nan 1.0783311e-38
nan nan nan 9.6769636e-39
nan nan nan 1.2258834e-38
nan nan nan 1.3088594e-38
nan nan nan 1.2628681e-38
nan nan nan 1.3550637e-38
nan nan nan 1.3366606e-38
nan nan nan 1.3274411e-38
nan nan nan 9.6499017e-41
nan nan nan 9.6499017e-41
nan nan nan 4.6993945e-40
nan nan nan 7.4652214e-40
nan nan nan 2.8985578e-40
nan nan nan 1.1479437e-41
nan nan nan 3.8025635e-40
nan nan nan 6.5683904e-40
-0.39303431 0.12582287 0.68100005 2.8985578e-40
-0.39044002 0.12582287 0.68100005 7.5333805e-42
-0.38955432 0.12637715 0.68400002 5.6296717e-39
-0.38694859 0.12637715 0.68400002 5.4452805e-39
-0.38546669 0.12674667 0.68600005 4.8038767e-39
-0.38452765 0.12730096 0.68900001 4.8038767e-39
-0.38190287 0.12730096 0.68900001 4.8042271e-39
-0.38092956 0.12785524 0.69200003 4.5276402e-39
-0.37829337 0.12785524 0.69200003 4.7116783e-39
-0.37565717 0.12785524 0.69200003 4.8038739e-39
-0.37463811 0.12840953 0.69500005 4.9868359e-39
-0.3719905 0.12840953 0.69500005 4.8946402e-39
-0.36934289 0.12840953 0.69500005 5.2634102e-39
-0.36669526 0.12840953 0.69500005 5.1712145e-39
-0.36404765 0.12840953 0.69500005 4.6205589e-39
-0.35984004 0.12785524 0.69200003 4.343972e-39
-0.35565525 0.12730096 0.68900001 5.2634102e-39
-0.35149336 0.12674667 0.68600005 4.8946276e-39
-0.34888002 0.12674667 0.68600005 4.3443475e-39
-0.34626669 0.12674667 0.68600005 4.7131301e-39
-0.34365335 0.12674667 0.68600005 5.0807957e-39
-0.34104002 0.12674667 0.68600005 5.1729914e-39
-0.33842668 0.12674667 0.68600005 5.1715649e-39
-0.33483431 0.12637715 0.68400002 5.1715649e-39
-0.3322286 0.12637715 0.68400002 5.263057e-39
-0.3305867 0.12674667 0.68600005 5.3552527e-39
-0.32701716 0.12637715 0.68400002 5.0793692e-39
-0.32441145 0.12637715 0.68400002 5.2637605e-39
-0.32180575 0.12637715 0.68400002 5.4492181e-39
-0.31920001 0.12637715 0.68400002 5.8180006e-39
-0.31520572 0.12582287 0.68100005 5.2652122e-39
-0.3112343 0.12526858 0.67800003 4.8042341e-39
-0.30865145 0.12526858 0.67800003 5.4485301e-39
-0.30516574 0.12489906 0.67600006 5.3563345e-39
-0.30348572 0.12526858 0.67800003 5.6322025e-39
-0.30001527 0.12489906 0.67600006 4.8024418e-39
-0.29744002 0.12489906 0.67600006 5.263057e-39
-0.29573718 0.12526858 0.67800003 5.4474483e-39
-0.29228956 0.12489906 0.67600006 4.9879023e-39
-0.28971431 0.12489906 0.67600006 5.4488804e-39
-0.28713906 0.12489906 0.67600006 5.7247512e-39
-0.28330097 0.12434477 0.67300004 5.0793818e-39
-0.28073716 0.12434477 0.67300004 5.3552527e-39
-0.27817336 0.12434477 0.67300004 5.5396439e-39
-0.27560955 0.12434477 0.67300004 5.5407103e-39
-0.27304572 0.12434477 0.67300004 5.5407103e-39
-0.27048191 0.12434477 0.67300004 4.9904232e-39
-0.26791811 0.12434477 0.67300004 5.1748145e-39
-0.26535431 0.12434477 0.67300004 5.3574079e-39
-0.2627905 0.12434477 0.67300004 5.080821e-39
-0.2602267 0.12434477 0.67300004 5.8172972e-39
-0.25766286 0.12434477 0.67300004 5.5407103e-39
-0.25509906 0.12434477 0.67300004 5.3566848e-39
-0.25253525 0.12434477 0.67300004 5.8176629e-39
-0.24997145 0.12434477 0.67300004 4.7127601e-39
-0.24740763 0.12434477 0.67300004 4.8049557e-39
-0.24593526 0.12489906 0.67600006 4.6205589e-39
-0.24228002 0.12434477 0.67300004 4.8971458e-39
-0.2397162 0.12434477 0.67300004 5.0800979e-39
-0.2371524 0.12434477 0.67300004 5.0800979e-39
nan nan nan 5.0790161e-39
nan nan nan 5.355603e-39
-0.25230479 0.13672382 0.74000001 5.2648269e-39
-0.24948573 0.13672382 0.74000001 6.5555657e-39
-0.24666668 0.13672382 0.74000001 4.6212679e-39
-0.24384764 0.13672382 0.74000001 5.2666373e-39
-0.24102859 0.13672382 0.74000001 4.9886309e-39
-0.23820955 0.13672382 0.74000001 4.9886309e-39
-0.23634478 0.13727811 0.74300003 5.2644892e-39
-0.23351429 0.13727811 0.74300003 4.8957066e-39
-0.23285715 0.13857144 0.75000006 4.5291045e-39
-0.23092002 0.13912572 0.75300002 3.8837351e-39
-0.22896002 0.13968001 0.75600004 5.4481391e-39
-0.22608002 0.13968001 0.75600004 5.9091173e-39
-0.22320001 0.13968001 0.75600004 6.6452726e-39
-0.22148573 0.14041905 0.76000005 5.6311207e-39
-0.2203162 0.14152762 0.76600003 4.9893344e-39
-0.21739811 0.14152762 0.76600003 5.3581169e-39
-0.21448001 0.14152762 0.76600003 5.9073544e-39
-0.21266668 0.14226668 0.77000004 5.261985e-39
-0.20973335 0.14226668 0.77000004 5.5374733e-39
-0.20760573 0.14282095 0.77300006 6.5516252e-39
-0.20466097 0.14282095 0.77300006 5.2644892e-39
-0.20276001 0.14356001 0.77700001 5.4488804e-39
-0.19877145 0.14282095 0.77300006 5.0800979e-39
-0.20038667 0.14614667 0.79100001 5.1722935e-39
-0.19737335 0.14614667 0.79100001 4.9890135e-39
-0.19534287 0.14688572 0.79500002 4.8046222e-39
-0.1923143 0.14688572 0.79500002 4.7120511e-39
nan nan nan 4.6198554e-39
nan nan nan 4.7113028e-39
nan nan nan 5.1722809e-39
nan nan nan 4.8957192e-39
nan nan nan 3.0518067e-39
nan nan nan 7.0086531e-39
nan nan nan 1.0512087e-38
nan nan nan 1.2443864e-38
-0.23502478 0.20915049 1.1320001 1.1982886e-38
-0.2307124 0.20915049 1.1320001 1.2534277e-38
-0.22640002 0.20915049 1.1320001 1.2442081e-38
-0.22208764 0.20915049 1.1320001 1.2900892e-38
-0.21777526 0.20915049 1.1320001 1.2900892e-38
-0.21346287 0.20915049 1.1320001 1.3548076e-38
-0.20915049 0.20915049 1.1320001 1.262612e-38
-0.20483811 0.20915049 1.1320001 1.3273259e-38
-0.19928573 0.20785716 1.125 1.3365454e-38
-0.19500001 0.20785716 1.125 1.290376e-38
-0.1907143 0.20785716 1.125 1.354913e-38
-0.18642858 0.20785716 1.125 1.2812662e-38
-0.18214287 0.20785716 1.125 1.3734618e-38
-0.17896383 0.20915049 1.1320001 1.4011555e-38
-0.17465144 0.20915049 1.1320001 1.3089599e-38
-0.17033906 0.20915049 1.1320001 1.4470738e-38
-0.16500001 0.20785716 1.125 1.3548782e-38
-0.1607143 0.20785716 1.125 1.3733874e-38
-0.15642858 0.20785716 1.125 1.4010461e-38
-0.15106097 0.20637906 1.1170001 1.465549e-38
-0.14680572 0.20637906 1.1170001 1.4839881e-38
-0.14255048 0.20637906 1.1170001 1.4285997e-38
-0.13829525 0.20637906 1.1170001 1.4470388e-38
-0.13404001 0.20637906 1.1170001 1.4197383e-38
-0.12978478 0.20637906 1.1170001 1.3459818e-38
-0.12552953 0.20637906 1.1170001 1.4566171e-38
-0.12127429 0.20637906 1.1170001 1.4105193e-38
-0.11701906 0.20637906 1.1170001 1.4747322e-38
-0.11276381 0.20637906 1.1170001 1.4101953e-38
-0.10850858 0.20637906 1.1170001 1.557638e-38
-0.10425334 0.20637906 1.1170001 1.4562228e-38
-0.099998102 0.20637906 1.1170001 1.7499191e-39
-0.095742866 0.20637906 1.1170001 4.0548098e-39
-0.091487624 0.20637906 1.1170001 3.7807271e-39
-0.087232389 0.20637906 1.1170001 3.5041402e-39
-0.082457148 0.20508572 1.11 4.0562546e-39
-0.078228578 0.20508572 1.11 4.1484502e-39
-0.074466668 0.20637906 1.1170001 4.5161537e-39
-0.069771431 0.20508572 1.11 4.4239581e-39
-0.065542862 0.20508572 1.11 3.9658568e-39
-0.061314289 0.20508572 1.11 3.6892699e-39
-0.057085719 0.20508572 1.11 4.1477243e-39
-0.052857146 0.20508572 1.11 3.8711375e-39
-0.048628576 0.20508572 1.11 5.7154256e-39
-0.044400003 0.20508572 1.11 1.3275467e-38
-0.04017143 0.20508572 1.11 1.2904129e-38
-0.03594286 0.20508572 1.11 1.2166564e-38
-0.031714287 0.20508572 1.11 1.0323392e-38
-0.027485715 0.20508572 1.11 8.8482623e-39
-0.02340381 0.20637906 1.1170001 7.0068525e-39
-0.019148573 0.20637906 1.1170001 5.2551355e-39
-0.014893334 0.20637906 1.1170001 8.572023e-39
-0.010638096 0.20637906 1.1170001 1.4011565e-38
-0.0063828574 0.20637906 1.1170001 1.4842054e-38
-0.0021428573 0.20785716 1.125 1.557962e-38
0.0021428573 0.20785716 1.125 1.5853673e-38
0.0064285719 0.20785716 1.125 1.6038064e-38
0.010638096 0.20637906 1.1170001 1.5852954e-38
0.013986668 0.19381525 1.049 1.6406128e-38
0.017862858 0.19252191 1.0420001 1.7142238e-38
0.021706669 0.19141334 1.036 1.7142238e-38
0.025653334 0.19141334 1.036 1.7328803e-38
0.029600002 0.19141334 1.036 1.696002e-38
0.033546668 0.19141334 1.036 1.7142626e-38
0.037493337 0.19141334 1.036 1.6958235e-38
nan nan nan 1.7329526e-38
0.049592383 0.20915049 1.1320001 1.7052939e-38
0.053190481 0.20637906 1.1170001 1.7606469e-38
0.057085719 0.20508572 1.11 1.7606469e-38
0.061314289 0.20508572 1.11 1.7513194e-38
0.065542862 0.20508572 1.11 1.8158564e-38
0.069771431 0.20508572 1.11 1.6311424e-38
0.074000008 0.20508572 1.11 1.8524119e-38
0.077735245 0.20379239 1.103 1.7423131e-38
0.082457148 0.20508572 1.11 1.6685566e-38
0.086685717 0.20508572 1.11 1.7605374e-38
0.090914294 0.20508572 1.11 1.7328788e-38
0.095142864 0.20508572 1.11 1.8066734e-38
0.099371433 0.20508572 1.11 1.7882342e-38
0.10360001 0.20508572 1.11 1.7524232e-39
0.10782858 0.20508572 1.11 5.0714659e-39
0.11205715 0.20508572 1.11 4.7009205e-39
0.11628572 0.20508572 1.11 3.9633555e-39
0.1205143 0.20508572 1.11 5.5303057e-39
0.12474287 0.20508572 1.11 5.43811e-39
0.12897144 0.20508572 1.11 5.62323e-39
0.1332 0.20508572 1.11 5.7154256e-39
0.13742858 0.20508572 1.11 5.8069178e-39
0.14165716 0.20508572 1.11 5.5303309e-39
0.14588572 0.20508572 1.11 5.7154256e-39
0.1501143 0.20508572 1.11 4.8856649e-39
0.15434286 0.20508572 1.11 8.940102e-39
0.15857144 0.20508572 1.11 1.6407948e-38
0.16280001 0.20508572 1.11 1.8436229e-38
0.16702858 0.20508572 1.11 1.8712816e-38
0.17125715 0.20508572 1.11 1.8526627e-38
0.17548573 0.20508572 1.11 1.8987605e-38
0.17971429 0.20508572 1.11 1.8710678e-38
0.18394287 0.20508572 1.11 1.8802874e-38
0.18817145 0.20508572 1.11 1.9171634e-38
0.19240001 0.20508572 1.11 2.0646764e-38
0.19662859 0.20508572 1.11 1.981953e-38
0.20085716 0.20508572 1.11 1.917416e-38
0.20508572 0.20508572 1.11 1.9173807e-38
0.2093143 0.20508572 1.11 1.8436242e-38
0.21354286 0.20508572 1.11 1.9356751e-38
0.21777144 0.20508572 1.11 1.852699e-38
0.22200002 0.20508572 1.11 1.8620268e-38
0.22622858 0.20508572 1.11 1.8251485e-38
0.23045716 0.20508572 1.11 1.82497e-38
0.23468573 0.20508572 1.11 1.8341895e-38
0.2389143 0.20508572 1.11 1.8066012e-38
0.24314287 0.20508572 1.11 1.8342599e-38
0.24737145 0.20508572 1.11 1.8709952e-38
0.25160003 0.20508572 1.11 1.8248974e-38
0.25582859 0.20508572 1.11 1.7419929e-38
0.26005715 0.20508572 1.11 1.7235538e-38
0.26595241 0.20637906 1.1170001 1.7697948e-38
0.27020764 0.20637906 1.1170001 1.7144775e-38
0.27446288 0.20637906 1.1170001 1.7973091e-38
0.27871811 0.20637906 1.1170001 1.8065286e-38
0.28297335 0.20637906 1.1170001 1.7790141e-38
0.28542858 0.20508572 1.11 1.8527706e-38
0.2878305 0.20379239 1.103 1.742209e-38
0.29203239 0.20379239 1.103 1.7975264e-38
0.29623431 0.20379239 1.103 1.7239864e-38
nan nan nan 1.7147668e-38
0.37479049 0.25072193 1.3570001 1.7883782e-38
0.37996003 0.25072193 1.3570001 1.7791586e-38
0.38512954 0.25072193 1.3570001 1.806746e-38
0.39029908 0.25072193 1.3570001 1.8344046e-38
0.39546859 0.25072193 1.3570001 1.8251498e-38
0.40063813 0.25072193 1.3570001 1.7974911e-38
0.40580764 0.25072193 1.3570001 1.871211e-38
0.41097715 0.25072193 1.3570001 1.9265284e-38
0.4161467 0.25072193 1.3570001 1.9541876e-38
0.42131621 0.25072193 1.3570001 1.6868203e-38
0.42648575 0.25072193 1.3570001 1.0225418e-38
0.43165526 0.25072193 1.3570001 8.934679e-39
0.4368248 0.25072193 1.3570001 9.8620583e-39
0.44199431 0.25072193 1.3570001 8.8479064e-39
0.44716385 0.25072193 1.3570001 8.296197e-39
0.45233336 0.25072193 1.3570001 8.9415664e-39
0.4575029 0.25072193 1.3570001 7.4671398e-39
0.46267241 0.25072193 1.3570001 9.403248e-39
0.46784192 0.25072193 1.3570001 8.3923331e-39
0.47301146 0.25072193 1.3570001 7.5625724e-39
0.4743048 0.24868955 1.3460001 7.2795045e-39
0.4794324 0.24868955 1.3460001 1.0598547e-38
0.48456004 0.24868955 1.3460001 8.2975941e-39
0.48968765 0.24868955 1.3460001 9.311746e-39
0.49481526 0.24868955 1.3460001 8.6653228e-39
0.4999429 0.24868955 1.3460001 7.6511709e-39
0.50507051 0.24868955 1.3460001 7.83736e-39
0.51019812 0.24868955 1.3460001 6.1778387e-39
0.51532573 0.24868955 1.3460001 9.1230514e-39
0.52045339 0.24868955 1.3460001 8.7542688e-39
0.525581 0.24868955 1.3460001 9.4950807e-39
0.53070861 0.24868955 1.3460001 7.4667768e-39
0.53583622 0.24868955 1.3460001 1.0598184e-38
0.54538482 0.25072193 1.3570001 8.8464673e-39
0.55055434 0.25072193 1.3570001 7.8362628e-39
0.55121911 0.24868955 1.3460001 8.0206541e-39
0.55180001 0.24665716 1.335 7.6515212e-39
0.55688578 0.24665716 1.335 9.0344557e-39
0.56197149 0.24665716 1.335 9.3117586e-39
0.56705719 0.24665716 1.335 8.1132154e-39
0.5721429 0.24665716 1.335 8.0206541e-39
0.57722861 0.24665716 1.335 9.3113929e-39
0.58231431 0.24665716 1.335 8.0203009e-39
0.59224004 0.24868955 1.3460001 8.6656703e-39
0.59736764 0.24868955 1.3460001 8.2000259e-39
0.60249525 0.24868955 1.3460001 9.3063734e-39
0.60762292 0.24868955 1.3460001 7.1905431e-39
0.61275053 0.24868955 1.3460001 8.2968906e-39
0.61787814 0.24868955 1.3460001 7.6504422e-39
0.62300575 0.24868955 1.3460001 7.7426378e-39
0.62813336 0.24868955 1.3460001 6.7303062e-39
0.63326097 0.24868955 1.3460001 6.6381106e-39
0.63838863 0.24868955 1.3460001 6.7263055e-39
0.64351624 0.24868955 1.3460001 8.1092399e-39
0.64864385 0.24868955 1.3460001 7.4700166e-39
0.65377146 0.24868955 1.3460001 5.9948866e-39
0.65889907 0.24868955 1.3460001 7.0958419e-39
0.66402674 0.24868955 1.3460001 8.1099938e-39
0.66915435 0.24868955 1.3460001 7.1923381e-39
0.67428195 0.24868955 1.3460001 7.5611206e-39
0.67940956 0.24868955 1.3460001 7.188741e-39
0.68453717 0.24868955 1.3460001 8.3872842e-39
0.68966478 0.24868955 1.3460001 7.8366285e-39
0.69479245 0.24868955 1.3460001 7.9288242e-39
0.69992006 0.24868955 1.3460001 7.0079497e-39
0.70504767 0.24868955 1.3460001 7.929906e-39
0.71017528 0.24868955 1.3460001 7.1902026e-39
0.71530288 0.24868955 1.3460001 6.82142e-39
nan nan nan 5.9941607e-39
nan nan nan 6.5473345e-39
nan nan nan 6.9121135e-39
nan nan nan 1.0323352e-38
nan nan nan 1.0232298e-38
nan nan nan 6.8210599e-39
nan nan nan 1.2046795e-39
nan nan nan 1.8500489e-39
nan nan nan 4.4250371e-39
nan nan nan 3.6874721e-39
nan nan nan 8.572023e-39
nan nan nan 1.0969109e-38
nan nan nan 1.1154236e-38
nan nan nan 9.3103237e-39
nan nan nan 1.2996392e-38
nan nan nan 1.2719805e-38
nan nan nan 1.2905268e-38
nan nan nan 1.3181855e-38
nan nan nan 1.373252e-38
nan nan nan 1.3363738e-38
nan nan nan 0
nan nan nan 0
nan nan nan 1.4349296e-42
nan nan nan 9.3629158e-41
nan nan nan 2.8734466e-40
nan nan nan 2.8734466e-40
nan nan nan 1.926393e-40
nan nan nan 1.206787e-39
-0.39303431 0.12841715 0.68100005 4.7747283e-40
-0.39044002 0.12841715 0.68100005 1.5425493e-41
-0.38955432 0.12898287 0.68400002 5.8158651e-39
-0.38694859 0.12898287 0.68400002 5.0783e-39
-0.38434288 0.12898287 0.68400002 5.264136e-39
-0.38285336 0.12936001 0.68600005 4.8031579e-39
-0.38190287 0.12992573 0.68900001 4.9868359e-39
-0.38092956 0.13049144 0.69200003 4.8946402e-39
-0.37829337 0.13049144 0.69200003 4.9871862e-39
-0.37565717 0.13049144 0.69200003 4.7105993e-39
-0.37463811 0.13105716 0.69500005 5.3527317e-39
-0.3719905 0.13105716 0.69500005 5.537123e-39
-0.37093717 0.13162287 0.69800001 4.3446979e-39
-0.36669526 0.13105716 0.69500005 4.5290891e-39
-0.36404765 0.13105716 0.69500005 4.6205645e-39
-0.36140004 0.13105716 0.69500005 4.6205645e-39
-0.3587524 0.13105716 0.69500005 4.9882526e-39
-0.35456765 0.13049144 0.69200003 4.896057e-39
-0.35040572 0.12992573 0.68900001 5.2652178e-39
-0.34778097 0.12992573 0.68900001 4.8042397e-39
-0.34515622 0.12992573 0.68900001 5.5403348e-39
-0.34253144 0.12992573 0.68900001 5.5403348e-39
-0.33990669 0.12992573 0.68900001 5.0800979e-39
-0.33728191 0.12992573 0.68900001 5.0800979e-39
-0.33465716 0.12992573 0.68900001 4.5272871e-39
-0.33347812 0.13049144 0.69200003 4.6194827e-39
-0.32940763 0.12992573 0.68900001 4.8049557e-39
-0.32678288 0.12992573 0.68900001 4.8971514e-39
-0.32274669 0.12936001 0.68600005 5.1722935e-39
-0.32153335 0.12992573 0.68900001 5.1722935e-39
-0.31752002 0.12936001 0.68600005 5.4481517e-39
-0.3139886 0.12898287 0.68400002 5.4481517e-39
-0.31001717 0.12841715 0.68100005 5.5396439e-39
-0.3060686 0.12785144 0.67800003 5.5396439e-39
-0.30482858 0.12841715 0.68100005 6.4605114e-39
-0.30090287 0.12785144 0.67800003 5.3541638e-39
-0.29832003 0.12785144 0.67800003 5.0790161e-39
-0.29704574 0.12841715 0.68100005 5.8165811e-39
-0.29445145 0.12841715 0.68100005 4.7127545e-39
-0.29185715 0.12841715 0.68100005 5.2659283e-39
-0.2879886 0.12785144 0.67800003 5.1723159e-39
-0.28456384 0.12747429 0.67600006 4.5269465e-39
-0.28198859 0.12747429 0.67600006 6.0017039e-39
-0.27817336 0.12690859 0.67300004 5.2641388e-39
-0.27560955 0.12690859 0.67300004 5.5407103e-39
-0.27304572 0.12690859 0.67300004 5.5407103e-39
-0.27048191 0.12690859 0.67300004 5.3581267e-39
-0.26672384 0.12634286 0.67000002 5.6347136e-39
-0.26417145 0.12634286 0.67000002 5.6325556e-39
-0.2627905 0.12690859 0.67300004 5.6325556e-39
-0.2602267 0.12690859 0.67300004 6.7360263e-39
-0.25766286 0.12690859 0.67300004 5.9062656e-39
-0.25509906 0.12690859 0.67300004 5.6325556e-39
-0.25253525 0.12690859 0.67300004 5.54036e-39
-0.24997145 0.12690859 0.67300004 3.3287439e-39
-0.24740763 0.12690859 0.67300004 5.8180259e-39
-0.24484383 0.12690859 0.67300004 5.3549023e-39
-0.24228002 0.12690859 0.67300004 5.1705111e-39
-0.2397162 0.12690859 0.67300004 4.8045648e-39
-0.2371524 0.12690859 0.67300004 4.988956e-39
-0.23458859 0.12690859 0.67300004 5.3556058e-39
-0.23202477 0.12690859 0.67300004 5.4478014e-39
-0.22946097 0.12690859 0.67300004 5.1718998e-39
nan nan nan 5.9094648e-39
-0.24666668 0.13954286 0.74000001 4.6205589e-39
-0.24384764 0.13954286 0.74000001 5.081537e-39
-0.24200574 0.14010859 0.74300003 5.8155147e-39
-0.23917526 0.14010859 0.74300003 5.7233191e-39
-0.21407811 0.12690859 0.67300004 6.0002339e-39
nan nan nan 5.5392558e-39
-0.23285715 0.14142857 0.75000006 5.2652122e-39
-0.23092002 0.1419943 0.75300002 5.1730166e-39
-0.22896002 0.14256001 0.75600004 5.5403348e-39
-0.22608002 0.14256001 0.75600004 4.987161e-39
-0.22320001 0.14256001 0.75600004 6.1835714e-39
-0.22148573 0.1433143 0.76000005 5.7225932e-39
-0.2185905 0.1433143 0.76000005 5.3570225e-39
-0.21654668 0.14388001 0.76300001 5.6336094e-39
-0.21364002 0.14388001 0.76300001 5.6318494e-39
-0.21266668 0.14520001 0.77000004 5.2630668e-39
-0.20973335 0.14520001 0.77000004 5.2648423e-39
-0.20760573 0.14576572 0.77300006 5.6336248e-39
-0.20466097 0.14576572 0.77300006 5.4495965e-39
-0.2017162 0.14576572 0.77300006 5.1730096e-39
-0.19877145 0.14576572 0.77300006 5.0807957e-39
-0.19760001 0.14708573 0.78000003 4.9886001e-39
-0.19462858 0.14708573 0.78000003 5.2648647e-39
-0.19534287 0.14991429 0.79500002 4.8038866e-39
-0.1923143 0.14991429 0.79500002 5.1708614e-39
nan nan nan 5.263057e-39
nan nan nan 4.528338e-39
nan nan nan 4.8971205e-39
nan nan nan 5.2637857e-39
nan nan nan 4.9871988e-39
nan nan nan 5.6318269e-39
nan nan nan 5.2630444e-39
nan nan nan 1.1798497e-38
-0.23502478 0.21346287 1.1320001 1.2259475e-38
-0.2307124 0.21346287 1.1320001 1.3273274e-38
-0.22640002 0.21346287 1.1320001 1.2166927e-38
-0.22208764 0.21346287 1.1320001 1.2718671e-38
-0.21777526 0.21346287 1.1320001 1.2810867e-38
-0.21346287 0.21346287 1.1320001 1.2445669e-38
-0.20915049 0.21346287 1.1320001 1.2445669e-38
-0.20483811 0.21346287 1.1320001 1.3272533e-38
-0.19928573 0.21214287 1.125 1.3364729e-38
-0.19500001 0.21214287 1.125 1.4564739e-38
-0.1907143 0.21214287 1.125 1.3274e-38
-0.18642858 0.21214287 1.125 1.2906662e-38
-0.18214287 0.21214287 1.125 1.3459836e-38
-0.17785716 0.21214287 1.125 1.3827514e-38
-0.17357144 0.21214287 1.125 1.4011906e-38
-0.16928573 0.21214287 1.125 1.4377461e-38
-0.16500001 0.21214287 1.125 1.4469657e-38
-0.15957144 0.21063431 1.1170001 1.4195931e-38
-0.1553162 0.21063431 1.1170001 1.4472518e-38
-0.15106097 0.21063431 1.1170001 1.5024616e-38
-0.14680572 0.21063431 1.1170001 1.4563637e-38
-0.14255048 0.21063431 1.1170001 1.4470736e-38
-0.13829525 0.21063431 1.1170001 1.4562931e-38
-0.13404001 0.21063431 1.1170001 1.5209755e-38
-0.12978478 0.21063431 1.1170001 1.4656581e-38
-0.12552953 0.21063431 1.1170001 1.493207e-38
-0.12127429 0.21063431 1.1170001 1.5116461e-38
-0.11701906 0.21063431 1.1170001 1.5022843e-38
-0.11276381 0.21063431 1.1170001 1.5115039e-38
-0.10850858 0.21063431 1.1170001 1.5761502e-38
-0.10360001 0.2093143 1.11 1.3825394e-38
-0.099371433 0.2093143 1.11 2.764071e-39
-0.095142864 0.2093143 1.11 3.9626142e-39
-0.091487624 0.21063431 1.1170001 3.1371695e-39
-0.086685717 0.2093143 1.11 3.2293652e-39
-0.082457148 0.2093143 1.11 4.1480719e-39
-0.078228578 0.2093143 1.11 4.3324631e-39
-0.074000008 0.2093143 1.11 3.9636806e-39
-0.069771431 0.2093143 1.11 4.2402675e-39
-0.065542862 0.2093143 1.11 3.6892699e-39
-0.061314289 0.2093143 1.11 3.412683e-39
-0.057085719 0.2093143 1.11 3.7800208e-39
-0.052857146 0.2093143 1.11 3.5034339e-39
-0.048628576 0.2093143 1.11 6.9103562e-39
-0.044400003 0.2093143 1.11 1.3548442e-38
-0.04017143 0.2093143 1.11 1.1985407e-38
-0.035716195 0.2079943 1.103 1.1340037e-38
-0.031514287 0.2079943 1.103 1.0508131e-38
-0.027485715 0.2093143 1.11 9.1251967e-39
-0.023257144 0.2093143 1.11 7.4653125e-39
-0.019028572 0.2093143 1.11 5.8057911e-39
-0.014800001 0.2093143 1.11 9.4961373e-39
-0.010638096 0.21063431 1.1170001 1.2999571e-38
-0.0063828574 0.21063431 1.1170001 1.5209392e-38
-0.0021276192 0.21063431 1.1170001 1.5578175e-38
0.0021276192 0.21063431 1.1170001 1.5945506e-38
0.0064285719 0.21214287 1.125 1.585331e-38
0.010638096 0.21063431 1.1170001 1.6313229e-38
0.013986668 0.19781144 1.049 1.6958598e-38
0.017862858 0.19649144 1.0420001 1.6960386e-38
0.021706669 0.19536002 1.036 1.6591604e-38
0.025653334 0.19536002 1.036 1.6868541e-38
0.029600002 0.19536002 1.036 1.6776345e-38
0.033546668 0.19536002 1.036 1.6037358e-38
0.03771048 0.19649144 1.0420001 1.7235901e-38
nan nan nan 1.6864935e-38
0.049592383 0.21346287 1.1320001 1.7971283e-38
0.049333338 0.19536002 1.036 1.668308e-38
0.053280003 0.19536002 1.036 1.7789428e-38
0.057558101 0.19649144 1.0420001 1.7329169e-38
0.065542862 0.2093143 1.11 1.751356e-38
0.069771431 0.2093143 1.11 1.6587985e-38
0.074000008 0.2093143 1.11 1.8155311e-38
0.078228578 0.2093143 1.11 1.7141861e-38
0.082457148 0.2093143 1.11 1.7602839e-38
0.086685717 0.2093143 1.11 1.7972718e-38
0.090914294 0.2093143 1.11 1.8249305e-38
0.095142864 0.2093143 1.11 1.8435511e-38
0.099371433 0.2093143 1.11 1.7144772e-38
0.10360001 0.2093143 1.11 1.9361082e-39
0.10782858 0.2093143 1.11 4.978564e-39
0.11205715 0.2093143 1.11 4.5172327e-39
0.11628572 0.2093143 1.11 4.701624e-39
0.1205143 0.2093143 1.11 5.0704065e-39
0.12474287 0.2093143 1.11 5.1626021e-39
0.12897144 0.2093143 1.11 4.609078e-39
0.1332 0.2093143 1.11 5.3466431e-39
0.13742858 0.2093143 1.11 5.1611952e-39
0.14165716 0.2093143 1.11 4.8846084e-39
0.14588572 0.2093143 1.11 5.4374066e-39
0.1501143 0.2093143 1.11 5.1608197e-39
0.15434286 0.2093143 1.11 6.8210473e-39
0.15857144 0.2093143 1.11 1.6870371e-38
0.16280001 0.2093143 1.11 1.8711712e-38
0.16702858 0.2093143 1.11 1.8619517e-38
0.17125715 0.2093143 1.11 1.7975611e-38
0.17548573 0.2093143 1.11 1.7606829e-38
0.17971429 0.2093143 1.11 1.8160371e-38
0.18394287 0.2093143 1.11 1.7515002e-38
0.18817145 0.2093143 1.11 1.8064913e-38
0.19240001 0.2093143 1.11 1.7788327e-38
0.19662859 0.2093143 1.11 1.8987618e-38
0.20085716 0.2093143 1.11 1.7973466e-38
0.20508572 0.2093143 1.11 1.8435148e-38
0.2093143 0.2093143 1.11 1.8527343e-38
0.21354286 0.2093143 1.11 1.8434797e-38
0.21777144 0.2093143 1.11 1.8987971e-38
0.22200002 0.2093143 1.11 1.8435874e-38
0.22622858 0.2093143 1.11 1.8343678e-38
0.23045716 0.2093143 1.11 1.8435516e-38
0.23468573 0.2093143 1.11 1.898869e-38
0.2389143 0.2093143 1.11 1.8250759e-38
0.24314287 0.2093143 1.11 1.8066368e-38
0.24737145 0.2093143 1.11 1.8250403e-38
0.25160003 0.2093143 1.11 1.7973816e-38
0.25582859 0.2093143 1.11 1.779087e-38
0.26005715 0.2093143 1.11 1.7514283e-38
0.26595241 0.21063431 1.1170001 1.751392e-38
0.27020764 0.21063431 1.1170001 1.751392e-38
0.27446288 0.21063431 1.1170001 1.7697232e-38
0.27871811 0.21063431 1.1170001 1.7973819e-38
0.28297335 0.21063431 1.1170001 1.8158917e-38
0.28542858 0.2093143 1.11 1.7421352e-38
0.28965718 0.2093143 1.11 1.7421734e-38
0.29203239 0.2079943 1.103 1.7052952e-38
0.2981143 0.2093143 1.11 1.7699763e-38
nan nan nan 1.8437328e-38
0.37479049 0.25589144 1.3570001 1.7881624e-38
0.37996003 0.25589144 1.3570001 1.8342602e-38
0.38512954 0.25589144 1.3570001 1.7973829e-38
0.39029908 0.25589144 1.3570001 1.7512851e-38
0.39546859 0.25589144 1.3570001 1.8803946e-38
0.40063813 0.25589144 1.3570001 1.8342967e-38
0.40580764 0.25589144 1.3570001 1.8341895e-38
0.41097715 0.25589144 1.3570001 1.8895069e-38
0.4161467 0.25589144 1.3570001 1.9080911e-38
0.42131621 0.25589144 1.3570001 1.825115e-38
0.42648575 0.25589144 1.3570001 1.4192363e-38
0.43165526 0.25589144 1.3570001 8.56843e-39
0.4368248 0.25589144 1.3570001 1.078617e-38
0.44199431 0.25589144 1.3570001 8.5734747e-39
0.44716385 0.25589144 1.3570001 9.1266485e-39
0.45233336 0.25589144 1.3570001 1.01408e-38
0.4575029 0.25589144 1.3570001 8.2043419e-39
0.46267241 0.25589144 1.3570001 8.1121462e-39
0.46404955 0.25381717 1.3460001 8.2969004e-39
0.46917719 0.25381717 1.3460001 8.2969004e-39
0.4743048 0.25381717 1.3460001 8.7571681e-39
0.4794324 0.25381717 1.3460001 9.2181463e-39
0.48456004 0.25381717 1.3460001 5.9966788e-39
0.48968765 0.25381717 1.3460001 8.8547433e-39
0.49481526 0.25381717 1.3460001 6.6370316e-39
0.4999429 0.25381717 1.3460001 7.3745966e-39
0.50507051 0.25381717 1.3460001 9.1255695e-39
0.51019812 0.25381717 1.3460001 8.3880045e-39
0.51532573 0.25381717 1.3460001 9.8595598e-39
0.52045339 0.25381717 1.3460001 8.568821e-39
0.525581 0.25381717 1.3460001 8.2054391e-39
0.53070861 0.25381717 1.3460001 6.9147003e-39
0.54021525 0.25589144 1.3570001 7.3727791e-39
0.54538482 0.25589144 1.3570001 9.4932786e-39
0.55055434 0.25589144 1.3570001 7.0079469e-39
0.55121911 0.25381717 1.3460001 8.2986857e-39
0.55634671 0.25381717 1.3460001 5.8050877e-39
0.56147432 0.25381717 1.3460001 8.5709566e-39
0.56660193 0.25381717 1.3460001 7.5596913e-39
0.56705719 0.25174287 1.335 7.4674957e-39
0.57685721 0.25381717 1.3460001 7.4653125e-39
0.58198482 0.25381717 1.3460001 8.6638557e-39
0.58711243 0.25381717 1.3460001 6.452262e-39
0.59224004 0.25381717 1.3460001 8.1117833e-39
0.59736764 0.25381717 1.3460001 7.6500891e-39
0.60249525 0.25381717 1.3460001 7.7422847e-39
0.60762292 0.25381717 1.3460001 7.6504394e-39
0.61275053 0.25381717 1.3460001 7.742635e-39
0.61787814 0.25381717 1.3460001 8.3854891e-39
0.62300575 0.25381717 1.3460001 8.0167066e-39
0.62813336 0.25381717 1.3460001 7.8305301e-39
0.63326097 0.25381717 1.3460001 8.2915082e-39
0.63838863 0.25381717 1.3460001 6.5465904e-39
0.64351624 0.25381717 1.3460001 6.5465904e-39
0.64864385 0.25381717 1.3460001 7.8359125e-39
0.65377146 0.25381717 1.3460001 6.5451737e-39
0.65889907 0.25381717 1.3460001 7.4671272e-39
0.66402674 0.25381717 1.3460001 7.4671272e-39
0.66915435 0.25381717 1.3460001 7.2827359e-39
0.67428195 0.25381717 1.3460001 7.743714e-39
0.67940956 0.25381717 1.3460001 6.450104e-39
0.68453717 0.25381717 1.3460001 7.3720603e-39
0.68966478 0.25381717 1.3460001 6.8192144e-39
0.69479245 0.25381717 1.3460001 7.5567794e-39
0.69992006 0.25381717 1.3460001 7.5585969e-39
0.70504767 0.25381717 1.3460001 7.6507925e-39
0.71017528 0.25381717 1.3460001 6.9121961e-39
0.71530288 0.25381717 1.3460001 6.5434136e-39
nan nan nan 6.1764037e-39
nan nan nan 7.7437295e-39
nan nan nan 9.9538658e-39
nan nan nan 1.1428996e-38
nan nan nan 4.3415043e-39
nan nan nan 6.5367911e-40
nan nan nan 3.8700683e-39
nan nan nan 4.6076333e-39
nan nan nan 3.2300714e-39
nan nan nan 7.6554617e-39
nan nan nan 9.9524617e-39
nan nan nan 1.1151005e-38
nan nan nan 9.5858274e-39
nan nan nan 1.0599979e-38
nan nan nan 1.3365174e-38
nan nan nan 1.2627609e-38
nan nan nan 1.3642467e-38
nan nan nan 1.3273685e-38
nan nan nan 1.4469722e-38
nan nan nan 1.4193136e-38
nan nan nan 0
nan nan nan 5.5317378e-40
nan nan nan 1.4349296e-42
nan nan nan 2.029736e-39
nan nan nan 2.9057325e-40
nan nan nan 1.3631831e-41
nan nan nan 3.8276748e-40
nan nan nan 2.9057325e-40
-0.39130288 0.13043429 0.67800003 3.8276748e-40
-0.38872004 0.13043429 0.67800003 1.3631831e-41
-0.38784575 0.13101144 0.68100005 5.5403572e-39
-0.38694859 0.13158858 0.68400002 5.3559659e-39
-0.38434288 0.13158858 0.68400002 4.3432559e-39
-0.38452765 0.13255048 0.68900001 4.3432559e-39
-0.38190287 0.13255048 0.68900001 4.7105993e-39
-0.38092956 0.13312763 0.69200003 5.0793818e-39
-0.37829337 0.13312763 0.69200003 4.711328e-39
-0.37565717 0.13312763 0.69200003 4.6191324e-39
-0.37463811 0.13370477 0.69500005 4.3446979e-39
-0.37359622 0.13428192 0.69800001 4.068111e-39
-0.37093717 0.13428192 0.69800001 4.8027949e-39
-0.36827812 0.13428192 0.69800001 4.6184037e-39
-0.36561906 0.13428192 0.69800001 4.2525022e-39
-0.36140004 0.13370477 0.69500005 4.4368935e-39
-0.3587524 0.13370477 0.69500005 3.1475896e-39
-0.35610479 0.13370477 0.69500005 3.1475896e-39
-0.35193145 0.13312763 0.69200003 4.8964423e-39
-0.34929526 0.13312763 0.69200003 4.6198554e-39
-0.34665906 0.13312763 0.69200003 4.7120258e-39
-0.34402287 0.13312763 0.69200003 4.8964171e-39
-0.34138668 0.13312763 0.69200003 5.9980857e-39
-0.33875051 0.13312763 0.69200003 5.0761294e-39
-0.33611432 0.13312763 0.69200003 5.2659059e-39
-0.33347812 0.13312763 0.69200003 4.8049277e-39
-0.33084193 0.13312763 0.69200003 4.9872086e-39
-0.32678288 0.13255048 0.68900001 4.9872086e-39
-0.3241581 0.13255048 0.68900001 5.2623536e-39
-0.32153335 0.13255048 0.68900001 5.1701579e-39
-0.31752002 0.13197334 0.68600005 6.1850105e-39
-0.31490669 0.13197334 0.68600005 5.7240324e-39
-0.31138289 0.13158858 0.68400002 4.6198554e-39
-0.30877715 0.13158858 0.68400002 5.4496161e-39
-0.30617145 0.13158858 0.68400002 4.987877e-39
-0.30223429 0.13101144 0.68100005 5.0800727e-39
-0.29832003 0.13043429 0.67800003 4.9882526e-39
-0.29704574 0.13101144 0.68100005 5.633622e-39
-0.29445145 0.13101144 0.68100005 5.0800979e-39
-0.29185715 0.13101144 0.68100005 5.4488804e-39
-0.2879886 0.13043429 0.67800003 5.9098838e-39
-0.28540573 0.13043429 0.67800003 4.8957319e-39
-0.28282288 0.13043429 0.67800003 5.2659213e-39
-0.27941334 0.13004953 0.67600006 4.8049431e-39
-0.27560955 0.12947239 0.67300004 5.5407103e-39
-0.27304572 0.12947239 0.67300004 4.8953409e-39
-0.27048191 0.12947239 0.67300004 5.0804482e-39
-0.26791811 0.12947239 0.67300004 5.4492307e-39
-0.26535431 0.12947239 0.67300004 5.4492434e-39
-0.2627905 0.12947239 0.67300004 5.4492434e-39
-0.2602267 0.12947239 0.67300004 5.1730222e-39
-0.25766286 0.12947239 0.67300004 5.6340003e-39
-0.25509906 0.12947239 0.67300004 4.9879023e-39
-0.25253525 0.12947239 0.67300004 5.3566848e-39
-0.24997145 0.12947239 0.67300004 4.3429056e-39
-0.24740763 0.12947239 0.67300004 4.7116881e-39
-0.24484383 0.12947239 0.67300004 5.1712369e-39
-0.24228002 0.12947239 0.67300004 4.9868457e-39
-0.2397162 0.12947239 0.67300004 5.447098e-39
-0.2371524 0.12947239 0.67300004 5.2627067e-39
-0.23458859 0.12947239 0.67300004 5.447098e-39
-0.23202477 0.12947239 0.67300004 5.447098e-39
-0.22946097 0.12947239 0.67300004 5.0804482e-39
nan nan nan 5.2648395e-39
-0.22266668 0.12851049 0.66800004 4.5294577e-39
-0.22012192 0.12851049 0.66800004 4.7138489e-39
-0.21757716 0.12851049 0.66800004 5.264136e-39
nan nan nan 6.278288e-39
-0.21312383 0.12889525 0.67000002 4.8971388e-39
nan nan nan 4.7127475e-39
-0.23378858 0.14486286 0.75300002 4.9893344e-39
-0.23092002 0.14486286 0.75300002 5.08153e-39
-0.22896002 0.14544001 0.75600004 4.8982276e-39
-0.22608002 0.14544001 0.75600004 5.3592057e-39
-0.22320001 0.14544001 0.75600004 3.8840855e-39
-0.22148573 0.14620954 0.76000005 4.8060418e-39
-0.2185905 0.14620954 0.76000005 6.0020514e-39
-0.21654668 0.14678667 0.76300001 4.9878995e-39
-0.21448001 0.14736383 0.76600003 5.8165937e-39
-0.21266668 0.14813334 0.77000004 5.26342e-39
-0.20973335 0.14813334 0.77000004 5.2648647e-39
-0.20760573 0.14871049 0.77300006 5.5414516e-39
-0.20466097 0.14871049 0.77300006 5.8176601e-39
-0.2017162 0.14871049 0.77300006 4.8957038e-39
-0.19800001 0.14813334 0.77000004 4.8034984e-39
-0.19582668 0.14871049 0.77300006 4.7113028e-39
-0.19388001 0.14948002 0.77700001 5.263057e-39
-0.19092001 0.14948002 0.77700001 5.3552527e-39
nan nan nan 5.1715901e-39
nan nan nan 5.0793944e-39
nan nan nan 4.437262e-39
nan nan nan 4.437262e-39
nan nan nan 4.8960724e-39
nan nan nan 4.8038767e-39
nan nan nan 4.7105993e-39
-0.24042097 0.21488954 1.1170001 4.8949906e-39
-0.23616573 0.21488954 1.1170001 4.6191071e-39
-0.23502478 0.21777526 1.1320001 8.6757148e-39
-0.2307124 0.21777526 1.1320001 1.2443523e-38
-0.22500001 0.21642859 1.125 1.2627915e-38
-0.2207143 0.21642859 1.125 1.2258769e-38
-0.21642859 0.21642859 1.125 1.2627552e-38
-0.21346287 0.21777526 1.1320001 1.2996687e-38
-0.20915049 0.21777526 1.1320001 1.3181079e-38
-0.20483811 0.21777526 1.1320001 1.3549486e-38
-0.19928573 0.21642859 1.125 1.3549486e-38
-0.19500001 0.21642859 1.125 1.3640627e-38
-0.1907143 0.21642859 1.125 1.4193801e-38
-0.18642858 0.21642859 1.125 1.3642067e-38
-0.18214287 0.21642859 1.125 1.3549871e-38
-0.17659239 0.21488954 1.1170001 1.4102654e-38
-0.17357144 0.21642859 1.125 1.3180697e-38
-0.16808191 0.21488954 1.1170001 1.4105203e-38
-0.16382667 0.21488954 1.1170001 1.3183246e-38
-0.15957144 0.21488954 1.1170001 1.3365817e-38
-0.15434286 0.21354286 1.11 1.5394121e-38
-0.15106097 0.21488954 1.1170001 1.2997751e-38
-0.14588572 0.21354286 1.11 1.5210446e-38
-0.14165716 0.21354286 1.11 1.4654764e-38
-0.13742858 0.21354286 1.11 1.4562568e-38
-0.1332 0.21354286 1.11 1.4929931e-38
-0.12897144 0.21354286 1.11 1.474554e-38
-0.12474287 0.21354286 1.11 1.4746606e-38
-0.1205143 0.21354286 1.11 1.4930998e-38
-0.11628572 0.21354286 1.11 1.4932442e-38
-0.11205715 0.21354286 1.11 1.4102682e-38
-0.10782858 0.21354286 1.11 1.6133153e-38
-0.10360001 0.21354286 1.11 1.2353133e-38
-0.099371433 0.21354286 1.11 2.1187016e-39
-0.095142864 0.21354286 1.11 4.0548098e-39
-0.090914294 0.21354286 1.11 3.5030836e-39
-0.086685717 0.21354286 1.11 3.6874749e-39
-0.082457148 0.21354286 1.11 3.8729227e-39
-0.078228578 0.21354286 1.11 4.057314e-39
-0.074000008 0.21354286 1.11 4.056958e-39
-0.06933143 0.2121962 1.103 4.056958e-39
-0.065542862 0.21354286 1.11 3.6892699e-39
-0.061314289 0.21354286 1.11 3.412683e-39
-0.057085719 0.21354286 1.11 3.0449739e-39
-0.052523814 0.2121962 1.103 2.4918001e-39
-0.048321906 0.2121962 1.103 7.2798576e-39
-0.044120003 0.2121962 1.103 1.3180378e-38
-0.04017143 0.21354286 1.11 1.1705933e-38
-0.035716195 0.2121962 1.103 1.2074716e-38
-0.031514287 0.2121962 1.103 9.9567371e-39
-0.027312383 0.2121962 1.103 1.0141128e-38
-0.023257144 0.21354286 1.11 6.6351987e-39
-0.019028572 0.21354286 1.11 4.6068948e-39
-0.014800001 0.21354286 1.11 9.3099439e-39
-0.01057143 0.21354286 1.11 1.3366552e-38
-0.0063428576 0.21354286 1.11 1.5486332e-38
-0.0021276192 0.21488954 1.1170001 1.5301941e-38
0.0021276192 0.21488954 1.1170001 1.4932427e-38
0.0063828574 0.21488954 1.1170001 1.613097e-38
0.009866667 0.19930668 1.036 1.5852253e-38
0.013813335 0.19930668 1.036 1.6036645e-38
0.017760001 0.19930668 1.036 1.5944799e-38
0.021706669 0.19930668 1.036 1.6313582e-38
0.025653334 0.19930668 1.036 1.6867456e-38
0.029600002 0.19930668 1.036 1.6683065e-38
0.033546668 0.19930668 1.036 1.6868541e-38
0.03771048 0.20046097 1.0420001 1.7052932e-38
0.041680004 0.20046097 1.0420001 1.6958936e-38
0.045649529 0.20046097 1.0420001 1.7788696e-38
0.049619053 0.20046097 1.0420001 1.7605763e-38
0.053588577 0.20046097 1.0420001 1.6499415e-38
0.057558101 0.20046097 1.0420001 1.6683809e-38
0.061527625 0.20046097 1.0420001 1.7329178e-38
0.065120004 0.19930668 1.036 1.5851492e-38
0.074000008 0.21354286 1.11 1.8064188e-38
0.077735245 0.2121962 1.103 1.7419894e-38
0.082457148 0.21354286 1.11 1.751209e-38
0.086685717 0.21354286 1.11 1.7145844e-38
0.090914294 0.21354286 1.11 1.6408279e-38
0.095142864 0.21354286 1.11 1.7789428e-38
0.099371433 0.21354286 1.11 1.732845e-38
0.10360001 0.21354286 1.11 1.3829344e-39
0.10782858 0.21354286 1.11 4.7019771e-39
0.11135048 0.2121962 1.103 4.2427968e-39
0.11628572 0.21354286 1.11 4.0584056e-39
0.1205143 0.21354286 1.11 4.7019771e-39
0.12474287 0.21354286 1.11 4.7941728e-39
0.12897144 0.21354286 1.11 4.8856649e-39
0.1332 0.21354286 1.11 4.8856649e-39
0.13742858 0.21354286 1.11 4.8863684e-39
0.14165716 0.21354286 1.11 4.5175859e-39
0.14588572 0.21354286 1.11 4.9778606e-39
0.1501143 0.21354286 1.11 4.4246868e-39
0.15434286 0.21354286 1.11 7.8337545e-39
0.15857144 0.21354286 1.11 1.6407948e-38
0.16280001 0.21354286 1.11 1.8617734e-38
0.16702858 0.21354286 1.11 1.8433343e-38
0.17125715 0.21354286 1.11 1.7514639e-38
0.17548573 0.21354286 1.11 1.769903e-38
0.17971429 0.21354286 1.11 1.7607197e-38
0.18394287 0.21354286 1.11 1.7515002e-38
0.18817145 0.21354286 1.11 1.6868185e-38
0.19240001 0.21354286 1.11 1.7513554e-38
0.19662859 0.21354286 1.11 1.8435526e-38
0.20085716 0.21354286 1.11 1.7144787e-38
0.20508572 0.21354286 1.11 1.7699381e-38
0.2093143 0.21354286 1.11 1.686962e-38
0.21354286 0.21354286 1.11 1.6317179e-38
0.21777144 0.21354286 1.11 1.79767e-38
0.22200002 0.21354286 1.11 1.6776358e-38
0.22622858 0.21354286 1.11 1.9081249e-38
0.23045716 0.21354286 1.11 1.8066015e-38
0.23468573 0.21354286 1.11 1.8619189e-38
0.2389143 0.21354286 1.11 1.8251122e-38
0.24314287 0.21354286 1.11 1.8158927e-38
0.24737145 0.21354286 1.11 1.7513191e-38
0.25160003 0.21354286 1.11 1.7881974e-38
0.25582859 0.21354286 1.11 1.7606842e-38
0.26005715 0.21354286 1.11 1.7514646e-38
0.26428574 0.21354286 1.11 1.8251125e-38
0.27020764 0.21488954 1.1170001 1.7882342e-38
0.27446288 0.21488954 1.1170001 1.742245e-38
0.27697146 0.21354286 1.11 1.7330255e-38
0.28120002 0.21354286 1.11 1.7145856e-38
0.28542858 0.21354286 1.11 1.7791226e-38
0.28965718 0.21354286 1.11 1.6869282e-38
0.29388574 0.21354286 1.11 1.7422456e-38
0.2981143 0.21354286 1.11 1.7514639e-38
nan nan nan 1.769903e-38
0.37175241 0.25894478 1.3460001 1.7422456e-38
0.37688002 0.25894478 1.3460001 1.7606847e-38
0.38200766 0.25894478 1.3460001 1.7974551e-38
0.38713527 0.25894478 1.3460001 1.7974551e-38
0.39226288 0.25894478 1.3460001 1.751358e-38
0.39739051 0.25894478 1.3460001 1.8527731e-38
0.40580764 0.26106098 1.3570001 1.8342624e-38
0.41097715 0.26106098 1.3570001 1.8803602e-38
0.4161467 0.26106098 1.3570001 1.9082347e-38
0.42131621 0.26106098 1.3570001 1.9266738e-38
0.42648575 0.26106098 1.3570001 1.7606494e-38
0.43165526 0.26106098 1.3570001 7.7415616e-39
0.4368248 0.26106098 1.3570001 9.1241402e-39
0.44199431 0.26106098 1.3570001 9.0319445e-39
0.44716385 0.26106098 1.3570001 8.1124966e-39
0.45233336 0.26106098 1.3570001 8.1124966e-39
0.45379433 0.25894478 1.3460001 9.0351998e-39
0.45892194 0.25894478 1.3460001 5.9005483e-39
0.46404955 0.25894478 1.3460001 8.5727867e-39
0.46917719 0.25894478 1.3460001 7.5586347e-39
0.4743048 0.25894478 1.3460001 8.2965375e-39
0.4794324 0.25894478 1.3460001 8.3887331e-39
0.48456004 0.25894478 1.3460001 8.1132028e-39
0.48968765 0.25894478 1.3460001 8.9429635e-39
0.49481526 0.25894478 1.3460001 8.2040014e-39
0.4999429 0.25894478 1.3460001 7.4664363e-39
0.50507051 0.25894478 1.3460001 1.059927e-38
0.51019812 0.25894478 1.3460001 8.663162e-39
0.51532573 0.25894478 1.3460001 9.2192379e-39
0.52045339 0.25894478 1.3460001 7.0065428e-39
0.52987623 0.26106098 1.3570001 6.7270818e-39
0.53504574 0.26106098 1.3570001 8.8475813e-39
0.54021525 0.26106098 1.3570001 8.3919729e-39
0.54538482 0.26106098 1.3570001 6.8246472e-39
0.54609144 0.25894478 1.3460001 7.651531e-39
0.55121911 0.25894478 1.3460001 8.3890961e-39
0.55634671 0.25894478 1.3460001 8.4812819e-39
0.56147432 0.25894478 1.3460001 5.9919999e-39
0.56660193 0.25894478 1.3460001 7.5589753e-39
0.57172954 0.25894478 1.3460001 7.4667796e-39
0.57685721 0.25894478 1.3460001 7.0965454e-39
0.58198482 0.25894478 1.3460001 8.2950886e-39
0.58711243 0.25894478 1.3460001 7.8355593e-39
0.59224004 0.25894478 1.3460001 6.4526249e-39
0.59736764 0.25894478 1.3460001 7.926676e-39
0.60249525 0.25894478 1.3460001 7.6500891e-39
0.60762292 0.25894478 1.3460001 7.3752847e-39
0.61275053 0.25894478 1.3460001 7.6518715e-39
0.61787814 0.25894478 1.3460001 7.5600416e-39
0.62300575 0.25894478 1.3460001 7.6522373e-39
0.62813336 0.25894478 1.3460001 7.4649944e-39
0.63326097 0.25894478 1.3460001 6.2664512e-39
0.63838863 0.25894478 1.3460001 7.0068679e-39
0.64351624 0.25894478 1.3460001 6.730281e-39
0.64864385 0.25894478 1.3460001 7.555032e-39
0.65377146 0.25894478 1.3460001 7.4628364e-39
0.65889907 0.25894478 1.3460001 7.5603948e-39
0.66402674 0.25894478 1.3460001 7.2838079e-39
0.66915435 0.25894478 1.3460001 7.3738553e-39
0.67428195 0.25894478 1.3460001 7.3738553e-39
0.67940956 0.25894478 1.3460001 5.8997916e-39
0.68453717 0.25894478 1.3460001 6.7295523e-39
0.68966478 0.25894478 1.3460001 6.9128576e-39
0.69479245 0.25894478 1.3460001 7.6504226e-39
0.69992006 0.25894478 1.3460001 6.9161016e-39
0.70504767 0.25894478 1.3460001 6.7317103e-39
0.71017528 0.25894478 1.3460001 7.4664391e-39
0.71530288 0.25894478 1.3460001 5.991309e-39
nan nan nan 8.0199254e-39
nan nan nan 1.0048229e-38
nan nan nan 1.0048267e-38
nan nan nan 4.7931162e-39
nan nan nan 1.8450238e-39
nan nan nan 3.4123495e-39
nan nan nan 4.4253902e-39
nan nan nan 3.6878252e-39
nan nan nan 7.0068581e-39
nan nan nan 1.0233705e-38
nan nan nan 9.4036039e-39
nan nan nan 1.0141169e-38
nan nan nan 9.0373395e-39
nan nan nan 8.9451439e-39
nan nan nan 1.3641401e-38
nan nan nan 1.2996032e-38
nan nan nan 1.382434e-38
nan nan nan 1.3455558e-38
nan nan nan 1.3919064e-38
nan nan nan 1.3458086e-38
nan nan nan 3.8420241e-40
nan nan nan 1.4349296e-41
nan nan nan 3.8025635e-40
nan nan nan 4.7245058e-40
nan nan nan 2.9057325e-40
nan nan nan 9.3593565e-40
nan nan nan 2.8877959e-40
nan nan nan 4.7316804e-40
-0.39130288 0.13301715 0.67800003 2.9057325e-40
-0.38872004 0.13301715 0.67800003 1.2914367e-41
-0.38784575 0.13360572 0.68100005 5.9080607e-39
-0.38525146 0.13360572 0.68100005 5.6314738e-39
-0.38434288 0.1341943 0.68400002 4.4351012e-39
-0.38452765 0.13517524 0.68900001 5.8180357e-39
-0.38190287 0.13517524 0.68900001 4.7120258e-39
-0.38092956 0.13576382 0.69200003 4.8042215e-39
-0.37829337 0.13576382 0.69200003 4.710249e-39
-0.37728575 0.13635239 0.69500005 4.8024446e-39
-0.37625527 0.13694096 0.69800001 5.3527317e-39
-0.37359622 0.13694096 0.69800001 5.3527317e-39
-0.37200004 0.13733335 0.70000005 4.0688396e-39
-0.36933336 0.13733335 0.70000005 3.8844484e-39
-0.3666667 0.13733335 0.70000005 4.7116783e-39
-0.36400002 0.13733335 0.70000005 4.7116783e-39
-0.3587524 0.13635239 0.69500005 4.8027949e-39
-0.35610479 0.13635239 0.69500005 4.8027949e-39
-0.35345715 0.13635239 0.69500005 4.8953689e-39
-0.35080954 0.13635239 0.69500005 4.7109777e-39
-0.34816194 0.13635239 0.69500005 5.7251016e-39
-0.34402287 0.13576382 0.69200003 4.8031453e-39
-0.34138668 0.13576382 0.69200003 4.9889813e-39
-0.33875051 0.13576382 0.69200003 4.7123944e-39
-0.33611432 0.13576382 0.69200003 4.7113028e-39
-0.33347812 0.13576382 0.69200003 5.2644765e-39
-0.33084193 0.13576382 0.69200003 5.3545492e-39
-0.32820573 0.13576382 0.69200003 5.3545492e-39
-0.32556954 0.13576382 0.69200003 6.1817763e-39
-0.32153335 0.13517524 0.68900001 5.8129938e-39
-0.3189086 0.13517524 0.68900001 5.6296717e-39
-0.31628382 0.13517524 0.68900001 5.3530848e-39
-0.31138289 0.1341943 0.68400002 5.4485301e-39
-0.30877715 0.1341943 0.68400002 5.4485301e-39
-0.30617145 0.1341943 0.68400002 5.4481391e-39
-0.30223429 0.13360572 0.68100005 5.724726e-39
-0.29964003 0.13360572 0.68100005 5.4485147e-39
-0.29704574 0.13360572 0.68100005 5.5407103e-39
-0.29445145 0.13360572 0.68100005 5.4478014e-39
-0.29185715 0.13360572 0.68100005 5.539997e-39
-0.28926289 0.13360572 0.68100005 5.6322025e-39
-0.2866686 0.13360572 0.68100005 5.1712243e-39
-0.28407431 0.13360572 0.68100005 4.7141866e-39
-0.28024003 0.13301715 0.67800003 4.8063823e-39
-0.27683812 0.13262478 0.67600006 5.5425208e-39
-0.27304572 0.13203619 0.67300004 5.5425208e-39
-0.27048191 0.13203619 0.67300004 6.0017039e-39
-0.26791811 0.13203619 0.67300004 5.4485301e-39
-0.26535431 0.13203619 0.67300004 4.9897141e-39
-0.2627905 0.13203619 0.67300004 5.0819098e-39
-0.2602267 0.13203619 0.67300004 4.9893344e-39
-0.25766286 0.13203619 0.67300004 4.5283562e-39
-0.25509906 0.13203619 0.67300004 4.9882526e-39
-0.25253525 0.13203619 0.67300004 5.8180133e-39
-0.24997145 0.13203619 0.67300004 4.8049557e-39
-0.24630478 0.13144763 0.67000002 4.6205645e-39
-0.24375239 0.13144763 0.67000002 5.2644892e-39
-0.24120001 0.13144763 0.67000002 5.6332717e-39
-0.2397162 0.13203619 0.67300004 4.9875744e-39
-0.23609525 0.13144763 0.67000002 4.8953787e-39
-0.23354287 0.13144763 0.67000002 5.2648423e-39
-0.23099048 0.13144763 0.67000002 5.1726467e-39
-0.22843811 0.13144763 0.67000002 5.0808266e-39
nan nan nan 5.1730222e-39
nan nan nan 5.3563345e-39
-0.22012192 0.13105525 0.66800004 5.4485301e-39
-0.21757716 0.13105525 0.66800004 5.3559561e-39
-0.2156762 0.13144763 0.67000002 5.4481517e-39
-0.21312383 0.13144763 0.67000002 5.2644892e-39
-0.21057144 0.13144763 0.67000002 5.4488804e-39
-0.20895049 0.13203619 0.67300004 6.5526916e-39
-0.20638669 0.13203619 0.67300004 5.722931e-39
-0.20382287 0.13203619 0.67300004 4.6198358e-39
nan nan nan 5.2652052e-39
-0.22320001 0.14832 0.75600004 4.9904176e-39
-0.22032002 0.14832 0.75600004 4.3450482e-39
-0.21744001 0.14832 0.75600004 5.3552527e-39
-0.19554478 0.13517524 0.68900001 5.263057e-39
nan nan nan 5.263057e-39
-0.21266668 0.15106668 0.77000004 5.3552527e-39
-0.20973335 0.15106668 0.77000004 4.619861e-39
-0.20680001 0.15106668 0.77000004 4.9886436e-39
-0.20466097 0.15165524 0.77300006 4.8035236e-39
-0.2017162 0.15165524 0.77300006 3.1440023e-39
-0.19800001 0.15106668 0.77000004 4.1577759e-39
-0.19582668 0.15165524 0.77300006 3.1436239e-39
-0.19288191 0.15165524 0.77300006 4.615517e-39
-0.19092001 0.15244001 0.77700001 5.6296689e-39
nan nan nan 5.0797448e-39
nan nan nan 4.9875491e-39
nan nan nan 4.8957192e-39
nan nan nan 5.9098712e-39
nan nan nan 5.0790413e-39
nan nan nan 4.9868457e-39
-0.24796192 0.22208764 1.1320001 5.7236694e-39
-0.24042097 0.21914478 1.1170001 5.4470825e-39
-0.23616573 0.21914478 1.1170001 5.0800727e-39
-0.23357144 0.2207143 1.125 4.3425076e-39
-0.22928573 0.2207143 1.125 8.3912092e-39
-0.22500001 0.2207143 1.125 1.2263426e-38
-0.2207143 0.2207143 1.125 1.2719725e-38
-0.21642859 0.2207143 1.125 1.2996312e-38
-0.21214287 0.2207143 1.125 1.3181439e-38
-0.20785716 0.2207143 1.125 1.3734612e-38
-0.20357144 0.2207143 1.125 1.3087804e-38
-0.19928573 0.2207143 1.125 1.3917565e-38
-0.19500001 0.2207143 1.125 1.3914337e-38
