# .PCD v0.7 - Point Cloud Data file format
VERSION 0.7
FIELDS x y z rgb
SIZE 4 4 4 4
TYPE F F F F
COUNT 1 1 1 1
WIDTH 1007
HEIGHT 1
VIEWPOINT 0 0 0 1 0 0 0
POINTS 1007
DATA ascii
0.065148577 1719.3889 -0.62567693 3.881189e-39
0.025057144 1719.3889 -0.62567693 2.030822e-39
0.021716192 1719.3889 -0.62567693 2.1230176e-39
0.018375238 1719.3889 -0.62567693 2.2152133e-39
0.015034286 1719.3889 -0.62567693 2.2152133e-39
0.011746667 1719.3861 -0.62853062 2.4925064e-39
0.0083904769 1719.3861 -0.62853062 2.584702e-39
0.0050342861 1719.3861 -0.62853062 3.6013749e-39
0.0016780953 1719.3861 -0.62853062 3.6013749e-39
-0.0016780953 1719.3861 -0.62853062 4.1541885e-39
-0.11474858 1719.0237 -0.99951345 8.4783882e-39
-0.12008572 1719.0237 -0.99951345 4.8873955e-39
-0.12542287 1719.0237 -0.99951345 7.8376557e-39
-0.13188002 1719.0154 -1.0080746 8.4801833e-39
-0.13609715 1719.0237 -0.99951345 9.1255527e-39
-0.1414343 1719.0237 -0.99951345 8.7531744e-39
-0.14677143 1719.0237 -0.99951345 9.3985438e-39
-0.15210858 1719.0237 -0.99951345 1.0136416e-38
-0.15744573 1719.0237 -0.99951345 8.2925032e-39
-0.16278286 1719.0237 -0.99951345 7.8322999e-39
-0.16680001 1719.0314 -0.99166584 7.9244956e-39
-0.17209525 1719.0314 -0.99166584 5.4406366e-39
-0.17739049 1719.0314 -0.99166584 8.3908967e-39
-0.46862862 1719.0314 -0.99166584 7.2838794e-39
-0.48980954 1719.0314 -0.99166584 1.0686434e-38
-0.49510479 1719.0314 -0.99166584 9.5800863e-39
-0.51628578 1719.0314 -0.99166584 1.1333961e-38
-0.55773145 1719.0237 -0.99951345 8.5741936e-39
-0.57908005 1719.0237 -0.99951345 8.5734873e-39
-0.58512384 1719.0314 -0.99166584 7.2859729e-39
-0.61160004 1719.0314 -0.99166584 8.0184961e-39
-0.62219054 1719.0314 -0.99166584 6.637019e-39
-0.62748575 1719.0314 -0.99166584 8.1124994e-39
-0.63278097 1719.0314 -0.99166584 7.6515212e-39
0.36168003 1719.4249 -0.58427763 5.0808266e-39
0.35854858 1719.4249 -0.58427763 5.2652178e-39
0.21844953 1719.439 -0.57006168 2.8674154e-39
0.12012573 1719.3606 -0.64967126 3.6053153e-39
0.11600572 1719.364 -0.64611721 2.6855268e-39
0.11254287 1719.364 -0.64611721 4.4372438e-39
0.10908001 1719.364 -0.64611721 2.1273336e-39
0.1050362 1719.3676 -0.64256322 1.9122539e-40
0.10159238 1719.3676 -0.64256322 1.847137e-39
0.09771429 1719.3704 -0.63972008 1.4783545e-39
0.094285719 1719.3704 -0.63972008 1.2035753e-39
0.090857148 1719.3704 -0.63972008 3.6928573e-39
0.086942866 1719.3739 -0.63616604 1.75927e-39
0.083066672 1719.3773 -0.63261205 2.1280525e-39
0.079318099 1719.3801 -0.62976891 3.232242e-39
0.075514294 1719.3837 -0.62621486 3.7854158e-39
0.065445721 1719.3837 -0.62621486 3.7897122e-39
0.025057144 1719.3865 -0.62337166 1.938276e-39
0.02181524 1719.3837 -0.62621486 1.938276e-39
0.018459048 1719.3837 -0.62621486 2.0304717e-39
0.015102858 1719.3837 -0.62621486 2.1226673e-39
0.011813334 1719.3801 -0.62976891 2.4925064e-39
0.0084380955 1719.3801 -0.62976891 2.584702e-39
0.0050628576 1719.3801 -0.62976891 2.2177272e-39
0.0016952382 1719.3773 -0.63261205 3.508466e-39
-0.0016876191 1719.3801 -0.62976891 4.1527816e-39
-0.052200004 1719.087 -0.92759413 4.3421671e-39
-0.062619053 1719.0801 -0.93470204 4.0673781e-39
-0.10407429 1719.0199 -0.99583083 5.62323e-39
-0.10941143 1719.0199 -0.99583083 8.7592911e-39
-0.11474858 1719.0199 -0.99583083 7.3763566e-39
-0.12008572 1719.0199 -0.99583083 4.0591062e-39
-0.12649715 1719.0115 -1.0043604 8.1157139e-39
-0.13188002 1719.0115 -1.0043604 8.4780351e-39
-0.13609715 1719.0199 -0.99583083 1.0229752e-38
-0.1414343 1719.0199 -0.99583083 4.1541885e-39
-0.14677143 1719.0199 -0.99583083 7.4732312e-39
-0.15210858 1719.0199 -0.99583083 5.1650656e-39
-0.15744573 1719.0199 -0.99583083 8.8528908e-39
-0.16278286 1719.0199 -0.99583083 9.400692e-39
-0.16680001 1719.0276 -0.98801214 9.1241051e-39
-0.17209525 1719.0276 -0.98801214 8.0163381e-39
-0.17739049 1719.0276 -0.98801214 9.4914681e-39
-0.50436002 1719.0199 -0.99583083 9.6798349e-39
-0.5096972 1719.0199 -0.99583083 9.3110524e-39
-0.51503432 1719.0199 -0.99583083 8.9430041e-39
-0.51628578 1719.0276 -0.98801214 8.9430041e-39
-0.55335242 1719.0276 -0.98801214 8.1128497e-39
-0.56394291 1719.0276 -0.98801214 7.3738553e-39
-0.56923813 1719.0276 -0.98801214 8.5723985e-39
-0.63278097 1719.0276 -0.98801214 8.1099784e-39
-0.63256764 1719.036 -0.97948247 7.9281053e-39
0.22761525 1719.4368 -0.56795359 5.0819126e-39
0.22456001 1719.4368 -0.56795359 4.9889813e-39
0.18450668 1719.4283 -0.57645154 3.232242e-39
0.12012573 1719.358 -0.64726871 3.604965e-39
0.11600572 1719.3616 -0.64372784 4.8002614e-39
0.11192381 1719.3651 -0.64018703 5.4456308e-39
0.10848001 1719.3651 -0.64018703 1.4801649e-39
0.1050362 1719.3651 -0.64018703 1.2035781e-39
0.10159238 1719.3651 -0.64018703 1.6620395e-39
0.09771429 1719.3679 -0.63735437 1.2010613e-39
0.094285719 1719.3679 -0.63735437 2.9560237e-39
0.090857148 1719.3679 -0.63735437 3.0482193e-39
0.086942866 1719.3715 -0.6338135 2.4961161e-39
0.083533339 1719.3715 -0.6338135 1.2053773e-39
0.080123812 1719.3715 -0.6338135 3.6020839e-39
0.075942859 1719.3777 -0.62743998 3.1411058e-39
0.065445721 1719.3812 -0.6238991 4.0648796e-39
0.018563811 1719.3777 -0.62743998 2.030822e-39
0.015188572 1719.3777 -0.62743998 2.1230176e-39
0.011866667 1719.3749 -0.63027263 1.8489447e-39
0.0084761912 1719.3749 -0.63027263 2.2177272e-39
0.0051142862 1719.3715 -0.6338135 2.0344051e-39
0.001704762 1719.3715 -0.6338135 3.3251439e-39
-0.001704762 1719.3715 -0.6338135 4.1520558e-39
-0.0050857146 1719.3749 -0.63027263 4.6130339e-39
-0.047228575 1719.0835 -0.92416382 4.8939242e-39
-0.052200004 1719.0835 -0.92416382 4.9846527e-39
-0.057171434 1719.0835 -0.92416382 5.5378264e-39
-0.06214286 1719.0835 -0.92416382 4.7109524e-39
-0.067628577 1719.0764 -0.93124551 4.6187568e-39
-0.072638102 1719.0764 -0.93124551 5.169404e-39
-0.09873715 1719.016 -0.99214822 7.6515212e-39
-0.10407429 1719.016 -0.99214822 7.1905431e-39
-0.10941143 1719.016 -0.99214822 8.0166912e-39
-0.11474858 1719.016 -0.99214822 8.6620606e-39
-0.12008572 1719.016 -0.99214822 7.1008235e-39
-0.12542287 1719.016 -0.99214822 7.2852148e-39
-0.13188002 1719.0076 -1.0006464 7.3738525e-39
-0.13609715 1719.016 -0.99214822 8.4802001e-39
-0.1414343 1719.016 -0.99214822 7.8358901e-39
-0.14677143 1719.016 -0.99214822 1.0048585e-38
-0.15210858 1719.016 -0.99214822 7.4613104e-39
-0.15620953 1719.0238 -0.98435843 8.3832667e-39
-0.16150478 1719.0238 -0.98435843 9.1248436e-39
-0.16680001 1719.0238 -0.98435843 9.032648e-39
-0.17209525 1719.0238 -0.98435843 6.545161e-39
-0.17739049 1719.0238 -0.98435843 6.8217479e-39
-0.5096972 1719.016 -0.99214822 1.004645e-38
-0.51628578 1719.0238 -0.98435843 7.3753001e-39
-0.52687621 1719.0238 -0.98435843 8.6635348e-39
-0.55864763 1719.0238 -0.98435843 8.9436795e-39
-0.56394291 1719.0238 -0.98435843 8.5716698e-39
-0.56923813 1719.0238 -0.98435843 8.6638655e-39
-0.58512384 1719.0238 -0.98435843 7.4660482e-39
-0.59041911 1719.0238 -0.98435843 8.756787e-39
-0.59571433 1719.0238 -0.98435843 7.2827135e-39
-0.60100955 1719.0238 -0.98435843 7.8358873e-39
-0.62731814 1719.0322 -0.9758603 8.8482371e-39
-0.63256764 1719.0322 -0.9758603 8.0185017e-39
0.22761525 1719.4346 -0.56584543 4.8953507e-39
0.20418668 1719.4316 -0.56866759 5.4496161e-39
0.2011162 1719.4316 -0.56866759 4.1617289e-39
0.12012573 1719.3556 -0.64486623 4.4354516e-39
0.11600572 1719.3591 -0.64133847 4.2514134e-39
0.11254287 1719.3591 -0.64133847 4.1592178e-39
0.10908001 1719.3591 -0.64133847 2.1230176e-39
0.1050362 1719.3625 -0.63781077 2.030822e-39
0.10159238 1719.3625 -0.63781077 1.7542351e-39
0.09771429 1719.3655 -0.63498861 1.9386264e-39
0.094285719 1719.3655 -0.63498861 3.3240845e-39
0.090857148 1719.3655 -0.63498861 3.2318889e-39
0.087428577 1719.3655 -0.63498861 2.4961161e-39
0.084000006 1719.3655 -0.63498861 1.9429424e-39
0.080123812 1719.3689 -0.63146091 2.6808437e-39
0.076714292 1719.3689 -0.63146091 3.8793869e-39
0.066114292 1719.3724 -0.6279332 4.1570752e-39
0.015342858 1719.3689 -0.63146091 2.0315282e-39
0.011933334 1719.3689 -0.63146091 1.7560428e-39
0.0085238097 1719.3689 -0.63146091 2.1248253e-39
0.0051142862 1719.3689 -0.63146091 2.216267e-39
0.001704762 1719.3689 -0.63146091 2.7694408e-39
-0.001704762 1719.3689 -0.63146091 3.6935705e-39
-0.0051142862 1719.3689 -0.63146091 4.3389399e-39
-0.0087047629 1719.3556 -0.64486623 4.3389399e-39
-0.047228575 1719.0798 -0.92073351 4.8031579e-39
-0.052200004 1719.0798 -0.92073351 5.1690439e-39
-0.057171434 1719.0798 -0.92073351 5.6300221e-39
-0.06214286 1719.0798 -0.92073351 4.7116783e-39
-0.067114294 1719.0798 -0.92073351 4.4350914e-39
-0.072638102 1719.0728 -0.92778891 4.4351012e-39
-0.077647626 1719.0728 -0.92778891 4.4351012e-39
-0.082657151 1719.0728 -0.92778891 4.7120062e-39
-0.088333338 1719.0658 -0.93484432 4.3432237e-39
-0.10325715 1719.0199 -0.98070472 5.1618609e-39
-0.10855239 1719.0199 -0.98070472 7.1912591e-39
-0.11384763 1719.0199 -0.98070472 7.467846e-39
-0.12008572 1719.0122 -0.98846561 6.638786e-39
-0.12542287 1719.0122 -0.98846561 7.1919598e-39
-0.13076001 1719.0122 -0.98846561 8.1106973e-39
-0.13609715 1719.0122 -0.98846561 9.8624143e-39
-0.1414343 1719.0122 -0.98846561 5.0668192e-39
-0.14561906 1719.0199 -0.98070472 9.0312313e-39
-0.15210858 1719.0122 -0.98846561 7.1908471e-39
-0.15620953 1719.0199 -0.98070472 8.2049991e-39
-0.16150478 1719.0199 -0.98070472 9.8649324e-39
-0.16680001 1719.0199 -0.98070472 8.8507805e-39
-0.17209525 1719.0199 -0.98070472 7.464609e-39
-0.41038099 1719.0199 -0.98070472 9.0351745e-39
-0.41567621 1719.0199 -0.98070472 8.4802281e-39
-0.44744766 1719.0199 -0.98070472 9.032648e-39
-0.45274287 1719.0199 -0.98070472 1.0231191e-38
-0.47392383 1719.0199 -0.98070472 1.0321948e-38
-0.47921908 1719.0199 -0.98070472 9.2148967e-39
-0.53217149 1719.0199 -0.98070472 6.2729154e-39
-0.54857528 1719.0284 -0.97223812 8.4819825e-39
-0.55864763 1719.0199 -0.98070472 9.0351563e-39
-0.55907434 1719.0284 -0.97223812 7.3742057e-39
-0.60100955 1719.0199 -0.98070472 6.3611327e-39
-0.61160004 1719.0199 -0.98070472 5.5310091e-39
-0.61689526 1719.0199 -0.98070472 7.8366313e-39
-0.62748575 1719.0199 -0.98070472 8.4819853e-39
-0.62731814 1719.0284 -0.97223812 5.6239208e-39
-0.63256764 1719.0284 -0.97223812 8.3883926e-39
0.22980763 1719.4344 -0.56162858 4.2492708e-39
0.22761525 1719.4324 -0.56373733 3.4195102e-39
0.22372001 1719.4344 -0.56162858 2.8655853e-39
0.2206762 1719.4344 -0.56162858 3.3265634e-39
0.2176324 1719.4344 -0.56162858 3.4190982e-39
0.21458858 1719.4344 -0.56162858 5.7239889e-39
0.18541335 1719.421 -0.57498395 3.0525101e-39
0.18140572 1719.4238 -0.57217222 2.6837276e-39
0.15726858 1719.4097 -0.58623058 4.1577759e-39
0.12360763 1719.353 -0.64246368 4.3439594e-39
0.12012573 1719.353 -0.64246368 5.2659157e-39
0.11600572 1719.3566 -0.6389491 4.3443447e-39
0.11254287 1719.3566 -0.6389491 2.039454e-39
0.10908001 1719.3566 -0.6389491 2.1255344e-39
0.1061981 1719.353 -0.64246368 1.7567518e-39
0.10215429 1719.3566 -0.6389491 6.4933508e-40
0.09470477 1719.3601 -0.63543457 3.784327e-39
0.091260955 1719.3601 -0.63543457 3.5077401e-39
0.088302866 1719.3566 -0.6389491 2.9552824e-39
0.08437334 1719.3601 -0.63543457 2.6786955e-39
0.080571435 1719.3629 -0.6326229 8.3695073e-40
0.077142864 1719.3629 -0.6326229 3.9716021e-39
0.012053334 1719.3601 -0.63543457 2.1226701e-39
0.0085714292 1719.3629 -0.6326229 2.1226701e-39
0.0051428573 1719.3629 -0.6326229 2.1237239e-39
0.0017142858 1719.3629 -0.6326229 2.584702e-39
-0.0017314287 1719.3566 -0.6389491 3.5098883e-39
-0.0052228575 1719.353 -0.64246368 3.6020839e-39
-0.0087523814 1719.3495 -0.64597827 4.2431472e-39
-0.012253334 1719.3495 -0.64597827 4.6119297e-39
-0.015754286 1719.3495 -0.64597827 4.5276402e-39
-0.019360002 1719.3459 -0.64949286 4.8964227e-39
-0.047228575 1719.0763 -0.91730326 4.7113378e-39
-0.052200004 1719.0763 -0.91730326 4.9842995e-39
-0.057171434 1719.0763 -0.91730326 5.5374733e-39
-0.06214286 1719.0763 -0.91730326 5.1708614e-39
-0.067114294 1719.0763 -0.91730326 5.0786658e-39
-0.072085716 1719.0763 -0.91730326 4.8042523e-39
-0.077647626 1719.0692 -0.92433232 4.5276654e-39
-0.082657151 1719.0692 -0.92433232 4.3443027e-39
-0.087666675 1719.0692 -0.92433232 5.3584546e-39
-0.0926762 1719.0692 -0.92433232 8.3890274e-39
-0.10325715 1719.0161 -0.97705102 7.5592667e-39
-0.10855239 1719.0161 -0.97705102 6.8217479e-39
-0.11384763 1719.0161 -0.97705102 8.296878e-39
-0.12008572 1719.0083 -0.98478293 7.1944933e-39
-0.12542287 1719.0083 -0.98478293 6.3647327e-39
-0.13076001 1719.0083 -0.98478293 8.8471679e-39
-0.13609715 1719.0083 -0.98478293 1.0045711e-38
-0.1414343 1719.0083 -0.98478293 9.3067266e-39
-0.14561906 1719.0161 -0.97705102 9.7677047e-39
-0.15210858 1719.0083 -0.98478293 9.309588e-39
-0.15620953 1719.0161 -0.97705102 6.820306e-39
-0.16150478 1719.0161 -0.97705102 9.7676893e-39
-0.16680001 1719.0161 -0.97705102 8.845733e-39
-0.17209525 1719.0161 -0.97705102 6.4565808e-39
-0.42097145 1719.0161 -0.97705102 1.0597831e-38
-0.4262667 1719.0161 -0.97705102 9.4936261e-39
-0.43156195 1719.0161 -0.97705102 1.0323387e-38
-0.43685716 1719.0161 -0.97705102 7.7423127e-39
-0.44215241 1719.0161 -0.97705102 8.2954865e-39
-0.44744766 1719.0161 -0.97705102 9.9531652e-39
-0.45274287 1719.0161 -0.97705102 1.069073e-38
-0.45803812 1719.0161 -0.97705102 9.1291876e-39
-0.46333337 1719.0161 -0.97705102 6.1789275e-39
-0.52687621 1719.0161 -0.97705102 8.8511336e-39
-0.54276192 1719.0161 -0.97705102 8.8486099e-39
-0.54332572 1719.0247 -0.96861595 8.4798273e-39
-0.54857528 1719.0247 -0.96861595 8.9415314e-39
-0.55382478 1719.0247 -0.96861595 9.771292e-39
-0.55907434 1719.0247 -0.96861595 6.4529654e-39
-0.56432384 1719.0247 -0.96861595 8.5734649e-39
-0.59571433 1719.0161 -0.97705102 7.9281053e-39
-0.60100955 1719.0161 -0.97705102 7.006149e-39
-0.60630482 1719.0161 -0.97705102 7.28201e-39
-0.61160004 1719.0161 -0.97705102 8.6649445e-39
-0.61689526 1719.0161 -0.97705102 7.838809e-39
-0.62219054 1719.0161 -0.97705102 8.0232002e-39
-0.62748575 1719.0161 -0.97705102 6.8178075e-39
-0.62731814 1719.0247 -0.96861595 8.2007419e-39
-0.63256764 1719.0247 -0.96861595 8.2036412e-39
0.29571432 1719.467 -0.52521437 5.1722935e-39
0.2703886 1719.4302 -0.56162924 5.0808266e-39
0.26733336 1719.4302 -0.56162924 4.7120511e-39
0.23285145 1719.4323 -0.55952835 3.8801226e-39
0.22980763 1719.4323 -0.55952835 3.8822778e-39
0.22676383 1719.4323 -0.55952835 3.5134953e-39
0.22372001 1719.4323 -0.55952835 3.6020839e-39
0.2206762 1719.4323 -0.55952835 3.9708665e-39
0.2176324 1719.4323 -0.55952835 3.9701574e-39
0.21458858 1719.4323 -0.55952835 3.5091793e-39
0.20622858 1719.4302 -0.56162924 4.2517637e-39
0.20418668 1719.4272 -0.56443036 4.8049375e-39
0.19380954 1719.4216 -0.5700326 2.7741253e-39
0.18760763 1719.4216 -0.5700326 1.4848439e-39
0.16680001 1719.4073 -0.58403838 3.7861067e-39
0.16362287 1719.4073 -0.58403838 3.881189e-39
0.15726858 1719.4073 -0.58403838 4.1577759e-39
0.15409143 1719.4073 -0.58403838 4.8031453e-39
0.12360763 1719.3506 -0.6400612 4.4383032e-39
0.12012573 1719.3506 -0.6400612 4.5304988e-39
0.11600572 1719.3541 -0.63655972 5.5403572e-39
0.11254287 1719.3541 -0.63655972 2.590097e-39
0.10908001 1719.3541 -0.63655972 1.3879665e-39
0.1061981 1719.3506 -0.6400612 1.4801621e-39
0.1027162 1719.3506 -0.6400612 8.3624448e-40
0.09923429 1719.3506 -0.6400612 3.6021134e-39
0.095752388 1719.3506 -0.6400612 3.3287439e-39
0.088788576 1719.3506 -0.6400612 2.8641784e-39
0.085306674 1719.3506 -0.6400612 3.0485697e-39
0.081377149 1719.3541 -0.63655972 1.1113796e-39
0.012186668 1719.3506 -0.6400612 2.1230176e-39
0.0087047629 1719.3506 -0.6400612 2.030822e-39
0.0052228575 1719.3506 -0.6400612 1.7549414e-39
0.0017409525 1719.3506 -0.6400612 2.1237239e-39
-0.0017409525 1719.3506 -0.6400612 1.6620395e-39
-0.005251429 1719.3469 -0.64356261 3.5981477e-39
-0.0087523814 1719.3469 -0.64356261 4.0623432e-39
-0.012253334 1719.3469 -0.64356261 4.4311257e-39
-0.015840001 1719.3434 -0.64706403 4.7077224e-39
-0.019360002 1719.3434 -0.64706403 4.4311356e-39
-0.047228575 1719.0728 -0.91387296 4.8964353e-39
-0.052200004 1719.0728 -0.91387296 5.0790161e-39
-0.057171434 1719.0728 -0.91387296 4.8024292e-39
-0.06214286 1719.0728 -0.91387296 4.6194827e-39
-0.067114294 1719.0728 -0.91387296 4.7116783e-39
-0.072085716 1719.0728 -0.91387296 4.7120314e-39
-0.077647626 1719.0656 -0.92087579 4.8964227e-39
-0.082657151 1719.0656 -0.92087579 5.2648423e-39
-0.087666675 1719.0656 -0.92087579 6.094603e-39
-0.097116195 1719.0209 -0.96499377 6.7291501e-39
-0.10236572 1719.0209 -0.96499377 9.0340409e-39
-0.10855239 1719.0123 -0.97339725 7.9255493e-39
-0.11384763 1719.0123 -0.97339725 7.3723756e-39
-0.12008572 1719.0045 -0.98110032 7.9241424e-39
-0.12542287 1719.0045 -0.98110032 7.9241424e-39
-0.13076001 1719.0045 -0.98110032 8.6670772e-39
-0.13609715 1719.0045 -0.98110032 7.5607297e-39
-0.1414343 1719.0045 -0.98110032 8.6642186e-39
-0.14561906 1719.0123 -0.97339725 6.7281104e-39
-0.15210858 1719.0045 -0.98110032 8.7542408e-39
-0.15620953 1719.0123 -0.97339725 7.5556976e-39
-0.16150478 1719.0123 -0.97339725 1.0878719e-38
-0.16680001 1719.0123 -0.97339725 8.4816322e-39
-0.17209525 1719.0123 -0.97339725 7.8322999e-39
-0.50040001 1719.0123 -0.97339725 8.6671501e-39
-0.50569528 1719.0123 -0.97339725 6.9154331e-39
-0.51628578 1719.0123 -0.97339725 8.112149e-39
-0.52158099 1719.0123 -0.97339725 8.3912344e-39
-0.52687621 1719.0123 -0.97339725 6.1785393e-39
-0.52757716 1719.0209 -0.96499377 1.0049326e-38
-0.53282672 1719.0209 -0.96499377 6.3615013e-39
-0.53807622 1719.0209 -0.96499377 1.0693639e-38
-0.54332572 1719.0209 -0.96499377 7.8355748e-39
-0.54857528 1719.0209 -0.96499377 8.940102e-39
-0.55382478 1719.0209 -0.96499377 9.4010802e-39
-0.55907434 1719.0209 -0.96499377 8.9361237e-39
-0.56432384 1719.0209 -0.96499377 9.7658844e-39
-0.5748229 1719.0209 -0.96499377 8.2968878e-39
-0.5800724 1719.0209 -0.96499377 8.5734775e-39
-0.58532196 1719.0209 -0.96499377 7.1905431e-39
-0.59571433 1719.0123 -0.97339725 7.0043343e-39
-0.60100955 1719.0123 -0.97339725 7.7418994e-39
-0.60630482 1719.0123 -0.97339725 7.6522401e-39
-0.61160004 1719.0123 -0.97339725 8.0210226e-39
-0.61689526 1719.0123 -0.97339725 6.4515739e-39
-0.62219054 1719.0123 -0.97339725 7.189139e-39
-0.62748575 1719.0123 -0.97339725 8.2936438e-39
-0.62731814 1719.0209 -0.96499377 8.4780351e-39
-0.63256764 1719.0209 -0.96499377 7.923439e-39
0.28829145 1719.4629 -0.52533585 4.7127601e-39
0.28542286 1719.4629 -0.52533585 4.2525022e-39
0.2825543 1719.4629 -0.52533585 4.5290891e-39
0.28260955 1719.428 -0.55952114 6.5537958e-39
0.27955431 1719.428 -0.55952114 5.2645116e-39
0.27649906 1719.428 -0.55952114 3.8815771e-39
0.27344382 1719.428 -0.55952114 4.3432559e-39
0.2703886 1719.428 -0.55952114 2.7759302e-39
0.26633334 1719.4301 -0.55742812 4.06919e-39
0.2559143 1719.4329 -0.55463743 4.5272871e-39
0.25288573 1719.4329 -0.55463743 3.5156182e-39
0.24682859 1719.4329 -0.55463743 4.252456e-39
0.24380001 1719.4329 -0.55463743 4.5290429e-39
0.2347143 1719.4329 -0.55463743 4.2510603e-39
0.23285145 1719.4301 -0.55742812 4.2510603e-39
0.22980763 1719.4301 -0.55742812 3.6064098e-39
0.22676383 1719.4301 -0.55742812 3.5142141e-39
0.22372001 1719.4301 -0.55742812 3.7897066e-39
0.21154478 1719.4301 -0.55742812 4.4311257e-39
0.20928383 1719.428 -0.55952114 2.2184306e-39
0.20622858 1719.428 -0.55952114 2.9577809e-39
0.18497144 1719.408 -0.57905549 3.1443624e-39
0.18180953 1719.408 -0.57905549 3.9701574e-39
0.17864764 1719.408 -0.57905549 3.1403967e-39
0.17548573 1719.408 -0.57905549 4.0662935e-39
0.16997716 1719.4052 -0.58184612 4.7087664e-39
0.16362287 1719.4052 -0.58184612 4.0655802e-39
0.14915429 1719.3994 -0.58742738 4.3454013e-39
0.12778477 1719.3445 -0.64114696 5.0790413e-39
0.12360763 1719.348 -0.63765866 5.0804482e-39
0.12012573 1719.348 -0.63765866 5.2648395e-39
0.11664382 1719.348 -0.63765866 6.0006193e-39
0.11254287 1719.3516 -0.63417035 8.3766399e-40
0.10908001 1719.3516 -0.63417035 2.030822e-39
0.098211437 1719.2788 -0.70533144 3.3233839e-39
0.094360009 1719.2788 -0.70533144 3.046797e-39
0.081377149 1719.3516 -0.63417035 2.7730393e-39
0.0087523814 1719.3445 -0.64114696 2.8580645e-39
0.005251429 1719.3445 -0.64114696 2.1226701e-39
0.0017409525 1719.348 -0.63765866 2.1226701e-39
-0.0017504763 1719.3445 -0.64114696 2.1230176e-39
-0.0052800002 1719.3409 -0.64463526 2.1230176e-39
-0.0087523814 1719.3445 -0.64114696 3.2315134e-39
-0.012320001 1719.3409 -0.64463526 3.2315134e-39
-0.015840001 1719.3409 -0.64463526 4.3389301e-39
-0.019360002 1719.3409 -0.64463526 4.7077126e-39
-0.023127621 1719.3337 -0.6516118 4.6191071e-39
-0.047228575 1719.0691 -0.91044271 5.0800979e-39
-0.052200004 1719.0691 -0.91044271 4.9868303e-39
-0.057171434 1719.0691 -0.91044271 3.6960915e-39
-0.06214286 1719.0691 -0.91044271 4.3436091e-39
-0.067114294 1719.0691 -0.91044271 4.5280003e-39
-0.072085716 1719.0691 -0.91044271 4.7120258e-39
-0.077057146 1719.0691 -0.91044271 4.6198302e-39
-0.082028575 1719.0691 -0.91044271 5.0793692e-39
-0.087666675 1719.062 -0.9174192 5.632543e-39
-0.0926762 1719.062 -0.9174192 7.4674803e-39
-0.10080572 1719.032 -0.94672084 7.1908934e-39
-0.10855239 1719.0085 -0.96974355 7.0036155e-39
-0.11384763 1719.0085 -0.96974355 8.4787455e-39
-0.11914287 1719.0085 -0.96974355 7.2848869e-39
-0.12542287 1719.0006 -0.97741771 6.270735e-39
-0.13076001 1719.0006 -0.97741771 8.2054139e-39
-0.13609715 1719.0006 -0.97741771 7.1912619e-39
-0.1414343 1719.0006 -0.97741771 8.3861926e-39
-0.14561906 1719.0085 -0.96974355 9.3081489e-39
-0.1509143 1719.0085 -0.96974355 7.3738105e-39
-0.15620953 1719.0085 -0.96974355 7.742593e-39
-0.16150478 1719.0085 -0.96974355 9.6798251e-39
-0.16680001 1719.0085 -0.96974355 7.9281081e-39
-0.17209525 1719.0085 -0.96974355 8.390496e-39
-0.28329524 1719.0085 -0.96974355 8.4805532e-39
-0.29388574 1719.0085 -0.96974355 6.6409566e-39
-0.29918098 1719.0085 -0.96974355 7.560029e-39
-0.32565716 1719.0085 -0.96974355 8.0196031e-39
-0.35492003 1719.0006 -0.97741771 7.926676e-39
-0.36025718 1719.0006 -0.97741771 9.1252192e-39
-0.36801907 1719.0085 -0.96974355 8.9419069e-39
-0.38390478 1719.0085 -0.96974355 5.6246088e-39
-0.38920003 1719.0085 -0.96974355 7.837304e-39
-0.39449528 1719.0085 -0.96974355 1.0509936e-38
-0.3997905 1719.0085 -0.96974355 7.6518715e-39
-0.40508574 1719.0085 -0.96974355 8.3919729e-39
-0.41038099 1719.0085 -0.96974355 8.2997773e-39
-0.42097145 1719.0085 -0.96974355 8.3883576e-39
-0.4262667 1719.0085 -0.96974355 1.0509586e-38
-0.43156195 1719.0085 -0.96974355 9.956412e-39
-0.43685716 1719.0085 -0.96974355 9.7709641e-39
-0.44744766 1719.0085 -0.96974355 9.2170897e-39
-0.45274287 1719.0085 -0.96974355 8.5717203e-39
-0.45803812 1719.0085 -0.96974355 1.0135774e-38
-0.46333337 1719.0085 -0.96974355 1.0043578e-38
-0.46862862 1719.0085 -0.96974355 9.8642261e-39
-0.48980954 1719.0085 -0.96974355 8.4816476e-39
-0.49510479 1719.0085 -0.96974355 8.4816476e-39
-0.50040001 1719.0085 -0.96974355 9.8627842e-39
-0.50569528 1719.0085 -0.96974355 7.0969153e-39
-0.51628578 1719.0085 -0.96974355 1.0509233e-38
-0.52158099 1719.0085 -0.96974355 7.1836907e-39
-0.52687621 1719.0085 -0.96974355 9.3963858e-39
-0.52757716 1719.0171 -0.9613716 9.4032382e-39
-0.53282672 1719.0171 -0.9613716 5.3466305e-39
-0.53807622 1719.0171 -0.9613716 8.0203416e-39
-0.53898859 1719.0249 -0.95369744 8.0203416e-39
-0.54857528 1719.0171 -0.9613716 8.8486323e-39
-0.55382478 1719.0171 -0.9613716 9.4940017e-39
-0.55907434 1719.0171 -0.9613716 8.2039663e-39
-0.56432384 1719.0171 -0.9613716 6.2678581e-39
-0.5748229 1719.0171 -0.9613716 8.6631522e-39
-0.58512384 1719.0085 -0.96974355 8.6638655e-39
-0.59041911 1719.0085 -0.96974355 7.7419092e-39
-0.59571433 1719.0085 -0.96974355 8.3908813e-39
-0.60100955 1719.0085 -0.96974355 7.6533163e-39
-0.60630482 1719.0085 -0.96974355 7.0075993e-39
-0.61160004 1719.0085 -0.96974355 7.4685775e-39
-0.61689526 1719.0085 -0.96974355 7.1891264e-39
-0.62219054 1719.0085 -0.96974355 7.6501045e-39
-0.62748575 1719.0085 -0.96974355 6.8221235e-39
-0.62731814 1719.0171 -0.9613716 8.8504273e-39
-0.63256764 1719.0171 -0.9613716 7.1883879e-39
0.28764001 1719.4279 -0.55532789 5.4477986e-39
0.28566477 1719.4258 -0.55741298 5.9087992e-39
0.2815524 1719.4279 -0.55532789 5.7244079e-39
0.27955431 1719.4258 -0.55741298 6.0009948e-39
0.27649906 1719.4258 -0.55741298 5.447821e-39
0.27344382 1719.4258 -0.55741298 5.0804482e-39
0.26937717 1719.4279 -0.55532789 4.6194701e-39
0.26633334 1719.4279 -0.55532789 4.0655802e-39
0.26328954 1719.4279 -0.55532789 4.9875365e-39
0.25894287 1719.4308 -0.55254775 5.2652178e-39
0.2559143 1719.4308 -0.55254775 4.4354572e-39
0.25288573 1719.4308 -0.55254775 4.252456e-39
0.24985716 1719.4308 -0.55254775 5.5431948e-39
0.24682859 1719.4308 -0.55254775 4.0680759e-39
0.24380001 1719.4308 -0.55254775 4.3446628e-39
0.23774287 1719.4308 -0.55254775 4.1588647e-39
0.2347143 1719.4308 -0.55254775 4.2499813e-39
0.23168573 1719.4308 -0.55254775 4.3421769e-39
0.22865716 1719.4308 -0.55254775 4.5276402e-39
0.18497144 1719.4056 -0.57687378 3.4209493e-39
0.18180953 1719.4056 -0.57687378 3.4202206e-39
0.16997716 1719.4028 -0.57965392 3.2347041e-39
0.16362287 1719.4028 -0.57965392 3.5149176e-39
0.14915429 1719.3971 -0.58521414 4.710249e-39
0.14341715 1719.3942 -0.58799416 4.8042018e-39
0.13128573 1719.3419 -0.6387313 4.7120258e-39
0.12778477 1719.3419 -0.6387313 4.8964171e-39
0.12360763 1719.3456 -0.63525617 4.8971388e-39
0.12012573 1719.3456 -0.63525617 5.6347038e-39
0.11664382 1719.3456 -0.63525617 2.6848234e-39
0.11254287 1719.3491 -0.63178098 1.0334576e-40
0.10908001 1719.3491 -0.63178098 2.3048907e-39
0.10654286 1719.2717 -0.70684415 4.2460058e-39
0.10266858 1719.2717 -0.70684415 3.6006364e-39
0.098211437 1719.2761 -0.70267391 4.059507e-39
0.0088000009 1719.3384 -0.64220643 2.0315282e-39
0.0052800002 1719.3384 -0.64220643 2.1226701e-39
0.0017600001 1719.3384 -0.64220643 2.2148657e-39
-0.001769524 1719.3348 -0.64568156 2.2152133e-39
-0.0053085717 1719.3348 -0.64568156 2.2152133e-39
-0.0088476194 1719.3348 -0.64568156 2.3996045e-39
-0.012386668 1719.3348 -0.64568156 2.3996045e-39
-0.015925715 1719.3348 -0.64568156 2.8681188e-39
-0.019360002 1719.3384 -0.64220643 4.066662e-39
-0.023251429 1719.3276 -0.65263188 4.1595737e-39
-0.047228575 1719.0656 -0.9070124 5.1726438e-39
-0.052200004 1719.0656 -0.9070124 5.264136e-39
-0.057171434 1719.0656 -0.9070124 4.8031579e-39
-0.06214286 1719.0656 -0.9070124 4.7120314e-39
-0.067114294 1719.0656 -0.9070124 4.8042271e-39
-0.072085716 1719.0656 -0.9070124 3.8829812e-39
-0.077057146 1719.0656 -0.9070124 3.9751769e-39
-0.082028575 1719.0656 -0.9070124 5.5374733e-39
-0.087666675 1719.0583 -0.9139626 7.6579728e-39
-0.0926762 1719.0583 -0.9139626 7.1909088e-39
-0.098428577 1719.0513 -0.92091292 6.9143219e-39
-0.10761525 1719.0133 -0.95774943 6.727044e-39
-0.11384763 1719.0046 -0.96608984 7.5568046e-39
-0.11914287 1719.0046 -0.96608984 7.5596759e-39
-0.12542287 1718.9968 -0.97373509 7.1908934e-39
-0.13076001 1718.9968 -0.97373509 7.55895e-39
-0.13609715 1718.9968 -0.97373509 7.7433413e-39
-0.1414343 1718.9968 -0.97373509 7.7397091e-39
-0.14561906 1719.0046 -0.96608984 9.3070348e-39
-0.15210858 1718.9968 -0.97373509 9.3059755e-39
-0.15620953 1719.0046 -0.96608984 9.2137798e-39
-0.16150478 1719.0046 -0.96608984 9.2174148e-39
-0.16680001 1719.0046 -0.96608984 8.664241e-39
-0.25152382 1719.0046 -0.96608984 8.2018013e-39
-0.36025718 1718.9968 -0.97373509 8.66532e-39
-0.5170781 1719.0133 -0.95774943 7.7433413e-39
-0.52687621 1719.0046 -0.96608984 9.4028626e-39
-0.52757716 1719.0133 -0.95774943 8.1121588e-39
-0.53282672 1719.0133 -0.95774943 6.7292244e-39
-0.53378099 1719.0211 -0.95010418 9.1252192e-39
-0.53898859 1719.0211 -0.95010418 8.7564366e-39
-0.54419625 1719.0211 -0.95010418 8.112149e-39
-0.54940385 1719.0211 -0.95010418 6.2682364e-39
-0.55461144 1719.0211 -0.95010418 7.0968957e-39
-0.61160004 1719.0046 -0.96608984 8.2940166e-39
-0.61689526 1719.0046 -0.96608984 7.1905529e-39
-0.62219054 1719.0046 -0.96608984 8.3890961e-39
-0.62748575 1719.0046 -0.96608984 7.651887e-39
-0.62731814 1719.0133 -0.95774943 7.0987132e-39
-0.63256764 1719.0133 -0.95774943 5.8094191e-39
0.2815524 1719.4257 -0.55322766 5.3563218e-39
0.2785086 1719.4257 -0.55322766 4.3432559e-39
0.27649906 1719.4235 -0.55530488 5.080821e-39
0.27344382 1719.4235 -0.55530488 5.080423e-39
0.26937717 1719.4257 -0.55322766 5.4492055e-39
0.26633334 1719.4257 -0.55322766 4.8042215e-39
0.26328954 1719.4257 -0.55322766 5.0808084e-39
0.25894287 1719.4286 -0.55045801 4.2499715e-39
0.2559143 1719.4286 -0.55045801 5.1719278e-39
0.25288573 1719.4286 -0.55045801 4.9900378e-39
0.24985716 1719.4286 -0.55045801 4.713451e-39
0.24682859 1719.4286 -0.55045801 4.3432559e-39
0.24380001 1719.4286 -0.55045801 4.2510603e-39
0.23956002 1719.4314 -0.54768848 4.0663187e-39
0.23774287 1719.4286 -0.55045801 3.9741231e-39
0.23353335 1719.4314 -0.54768848 4.1570752e-39
0.23168573 1719.4286 -0.55045801 3.9726839e-39
0.22865716 1719.4286 -0.55045801 3.604965e-39
0.19594286 1719.4177 -0.56084412 3.5084758e-39
0.19380954 1719.4149 -0.56361359 3.1396933e-39
0.1565143 1719.4034 -0.57469201 4.7077126e-39
0.14594668 1719.3948 -0.5830009 4.3436091e-39
0.14341715 1719.3918 -0.58577043 4.4358047e-39
0.1401943 1719.3918 -0.58577043 4.7120258e-39
0.13200001 1719.3358 -0.63977766 4.8045648e-39
0.12848 1719.3358 -0.63977766 4.5279779e-39
0.12428382 1719.3395 -0.63631564 4.9897141e-39
0.12012573 1719.343 -0.63285363 5.6350836e-39
0.11664382 1719.343 -0.63285363 2.2217055e-39
0.11316191 1719.343 -0.63285363 1.4841404e-39
0.10968 1719.343 -0.63285363 4.0612642e-39
0.11117715 1719.2639 -0.70901769 3.9701476e-39
0.10654286 1719.2689 -0.70417088 3.7857563e-39
0.10266858 1719.2689 -0.70417088 3.6013651e-39
0.098211437 1719.2733 -0.70001644 2.7712793e-39
0.093800008 1719.2776 -0.69586205 2.6790837e-39
0.0088476194 1719.3323 -0.64323962 1.7542351e-39
0.0053085717 1719.3323 -0.64323962 1.9393326e-39
0.001769524 1719.3323 -0.64323962 2.0315282e-39
-0.0017790478 1719.3286 -0.64670163 2.2159195e-39
-0.0053371433 1719.3286 -0.64670163 2.0315282e-39
-0.0088952389 1719.3286 -0.64670163 2.1226701e-39
-0.012386668 1719.3323 -0.64323962 1.9382788e-39
-0.01601143 1719.3286 -0.64670163 3.140024e-39
-0.019464763 1719.3323 -0.64323962 4.1541759e-39
-0.023127621 1719.3286 -0.64670163 5.2601858e-39
-0.047228575 1719.062 -0.9035821 4.8045648e-39
-0.052200004 1719.062 -0.9035821 4.0684613e-39
-0.057171434 1719.062 -0.9035821 4.4372438e-39
-0.06214286 1719.062 -0.9035821 5.6296717e-39
-0.067114294 1719.062 -0.9035821 5.3530848e-39
-0.072085716 1719.062 -0.9035821 4.7120258e-39
-0.077057146 1719.062 -0.9035821 3.9744608e-39
-0.082028575 1719.062 -0.9035821 5.3494947e-39
-0.087666675 1719.0548 -0.91050607 7.2856029e-39
-0.0926762 1719.0548 -0.91050607 8.2968878e-39
-0.098428577 1719.0476 -0.91743004 6.3607796e-39
-0.10597525 1719.0245 -0.93958688 7.6497037e-39
-0.11384763 1719.0009 -0.96243614 6.1745737e-39
-0.11914287 1719.0009 -0.96243614 7.2834576e-39
-0.12542287 1718.9929 -0.97005242 7.5600445e-39
-0.13076001 1718.9929 -0.97005242 8.2939577e-39
-0.13609715 1718.9929 -0.97005242 8.7549359e-39
-0.1414343 1718.9929 -0.97005242 7.4692529e-39
-0.14677143 1718.9929 -0.97005242 7.9302311e-39
-0.15210858 1718.9929 -0.97005242 8.38295e-39
-0.15744573 1718.9929 -0.97005242 8.0141674e-39
-0.16278286 1718.9929 -0.97005242 8.1113979e-39
-0.16680001 1719.0009 -0.96243614 8.5723761e-39
-0.23563811 1719.0009 -0.96243614 8.2014356e-39
-0.24093334 1719.0009 -0.96243614 8.9390006e-39
-0.25152382 1719.0009 -0.96243614 7.9273794e-39
-0.34958288 1718.9929 -0.97005242 8.574216e-39
-0.36025718 1718.9929 -0.97005242 8.7593457e-39
-0.3997905 1719.0009 -0.96243614 8.3887359e-39
-0.40508574 1719.0009 -0.96243614 8.5789005e-39
-0.4262667 1719.0009 -0.96243614 1.1152097e-38
-0.44215241 1719.0009 -0.96243614 8.2039789e-39
-0.48980954 1719.0009 -0.96243614 1.0416308e-38
-0.49510479 1719.0009 -0.96243614 8.0192219e-39
-0.50040001 1719.0009 -0.96243614 7.9259501e-39
-0.52757716 1719.0095 -0.95412731 8.8497113e-39
-0.53282672 1719.0095 -0.95412731 6.7292118e-39
-0.53378099 1719.0175 -0.94651091 8.6649445e-39
-0.53898859 1719.0175 -0.94651091 8.6649445e-39
-0.54419625 1719.0175 -0.94651091 8.1121238e-39
-0.54940385 1719.0175 -0.94651091 8.2043194e-39
-0.57453334 1719.0009 -0.96243614 8.0206541e-39
-0.57982862 1719.0009 -0.96243614 7.7440672e-39
-0.58512384 1719.0009 -0.96243614 8.4812791e-39
-0.59571433 1719.0009 -0.96243614 8.4809288e-39
-0.61160004 1719.0009 -0.96243614 7.8348139e-39
-0.61689526 1719.0009 -0.96243614 7.7426378e-39
-0.62219054 1719.0009 -0.96243614 7.2816597e-39
-0.62748575 1719.0009 -0.96243614 6.7324516e-39
-0.63278097 1719.0009 -0.96243614 7.5622123e-39
-0.63256764 1719.0095 -0.95412731 6.5484205e-39
0.26596001 1719.4495 -0.52629566 5.4485301e-39
0.26408765 1719.4473 -0.52836496 5.2641388e-39
0.26937717 1719.4235 -0.55112743 4.9900378e-39
0.26633334 1719.4235 -0.55112743 4.2513882e-39
0.26197144 1719.4264 -0.54836833 4.8967576e-39
0.25894287 1719.4264 -0.54836833 4.6198302e-39
0.25462669 1719.4292 -0.54560924 4.7120258e-39
0.25161335 1719.4292 -0.54560924 4.4368767e-39
0.24860002 1719.4292 -0.54560924 5.1744417e-39
0.24558668 1719.4292 -0.54560924 4.6194827e-39
0.24257335 1719.4292 -0.54560924 3.5131351e-39
0.23956002 1719.4292 -0.54560924 4.6155268e-39
0.23654668 1719.4292 -0.54560924 4.7999181e-39
0.23353335 1719.4292 -0.54560924 3.4220185e-39
0.23052001 1719.4292 -0.54560924 3.4220185e-39
0.22865716 1719.4264 -0.54836833 3.604965e-39
0.22562858 1719.4264 -0.54836833 3.3283781e-39
0.22260001 1719.4264 -0.54836833 2.8684664e-39
0.2021143 1719.4155 -0.55871493 2.3146045e-39
0.19902858 1719.4155 -0.55871493 1.4848439e-39
0.19691049 1719.4127 -0.56147397 3.1411156e-39
0.19380954 1719.4127 -0.56147397 3.3255069e-39
0.19070858 1719.4127 -0.56147397 3.7857661e-39
0.18852954 1719.4098 -0.56423306 5.076505e-39
0.18356192 1719.3954 -0.5780285 5.2652178e-39
0.18036954 1719.3954 -0.5780285 5.2652178e-39
0.16440763 1719.3954 -0.5780285 4.5265584e-39
0.16121525 1719.3954 -0.5780285 5.0797322e-39
0.15802287 1719.3954 -0.5780285 5.2648423e-39
0.15556954 1719.3925 -0.58078766 5.1726467e-39
0.15236191 1719.3925 -0.58078766 4.5283632e-39
0.16190858 1719.3405 -0.63045114 4.8049501e-39
0.15842667 1719.3405 -0.63045114 4.896057e-39
0.15146287 1719.3405 -0.63045114 4.9882274e-39
0.12917525 1719.3297 -0.64079767 4.9875113e-39
0.12428382 1719.3369 -0.63389999 6.2761201e-39
0.12012573 1719.3405 -0.63045114 4.9853813e-39
0.11664382 1719.3405 -0.63045114 1.5716515e-39
0.11316191 1719.3405 -0.63045114 9.2628211e-40
0.10968 1719.3405 -0.63045114 3.7857563e-39
0.11117715 1719.2611 -0.70632601 2.8638e-39
0.10790477 1719.2568 -0.71046466 3.876873e-39
0.10337524 1719.2611 -0.70632601 2.0329604e-39
0.099474296 1719.2611 -0.70632601 2.0304717e-39
0.094360009 1719.2705 -0.69735897 1.938276e-39
0.0053371433 1719.326 -0.64424658 1.3861588e-39
0.0017790478 1719.326 -0.64424658 1.847137e-39
-0.0017790478 1719.326 -0.64424658 1.7542351e-39
-0.0053371433 1719.326 -0.64424658 2.030822e-39
-0.0088952389 1719.326 -0.64424658 1.7560428e-39
-0.012453334 1719.326 -0.64424658 1.7560428e-39
-0.01601143 1719.326 -0.64424658 1.5694935e-39
-0.019569525 1719.326 -0.64424658 3.5977974e-39
-0.023127621 1719.326 -0.64424658 4.6177002e-39
-0.026685717 1719.326 -0.64424658 4.433309e-39
-0.052200004 1719.0583 -0.90015185 4.8956814e-39
-0.057171434 1719.0583 -0.90015185 5.1722683e-39
-0.06214286 1719.0583 -0.90015185 4.6212679e-39
-0.067114294 1719.0583 -0.90015185 4.5290723e-39
-0.072085716 1719.0583 -0.90015185 4.7113028e-39
-0.077057146 1719.0583 -0.90015185 4.8034984e-39
-0.082028575 1719.0583 -0.90015185 7.0958167e-39
-0.087000005 1719.0583 -0.90015185 9.4929031e-39
-0.0926762 1719.0511 -0.90704948 7.0050532e-39
-0.097685717 1719.0511 -0.90704948 6.544075e-39
-0.1034762 1719.0439 -0.91394722 7.6464443e-39
-0.11384763 1718.9971 -0.95878243 9.7669438e-39
-0.12008572 1718.9891 -0.96636981 5.7139935e-39
-0.12542287 1718.9891 -0.96636981 6.1749716e-39
-0.13076001 1718.9891 -0.96636981 7.0990537e-39
-0.13609715 1718.9891 -0.96636981 6.9146624e-39
-0.1414343 1718.9891 -0.96636981 5.3480472e-39
-0.14677143 1718.9891 -0.96636981 6.638786e-39
-0.15210858 1718.9891 -0.96636981 8.0224519e-39
-0.15744573 1718.9891 -0.96636981 7.0083e-39
-0.16150478 1718.9971 -0.95878243 8.2071963e-39
-0.20916192 1718.9971 -0.95878243 1.0140813e-38
-0.21445715 1718.9971 -0.95878243 7.3738553e-39
-0.2197524 1718.9971 -0.95878243 9.4021592e-39
-0.22504763 1718.9971 -0.95878243 8.1096057e-39
-0.23034286 1718.9971 -0.95878243 8.3861926e-39
-0.23563811 1718.9971 -0.95878243 8.7538933e-39
-0.24093334 1718.9971 -0.95878243 8.2929151e-39
-0.24622859 1718.9971 -0.95878243 8.2043194e-39
-0.25152382 1718.9971 -0.95878243 9.310667e-39
-0.26211432 1718.9971 -0.95878243 6.4558647e-39
-0.26740953 1718.9971 -0.95878243 9.1223227e-39
-0.36025718 1718.9891 -0.96636981 7.6501115e-39
-0.3997905 1718.9971 -0.95878243 9.1270016e-39
-0.40508574 1718.9971 -0.95878243 7.7455497e-39
-0.41038099 1718.9971 -0.95878243 7.8377454e-39
-0.41567621 1718.9971 -0.95878243 1.1429404e-38
-0.42097145 1718.9971 -0.95878243 6.8196222e-39
-0.43156195 1718.9971 -0.95878243 9.7738186e-39
-0.43685716 1718.9971 -0.95878243 9.5847358e-39
-0.44744766 1718.9971 -0.95878243 7.287433e-39
-0.45803812 1718.9971 -0.95878243 9.7681055e-39
-0.46333337 1718.9971 -0.95878243 1.0044692e-38
-0.46862862 1718.9971 -0.95878243 8.1150427e-39
-0.47392383 1718.9971 -0.95878243 8.299434e-39
-0.47921908 1718.9971 -0.95878243 8.6642438e-39
-0.48451433 1718.9971 -0.95878243 1.0600352e-38
-0.48980954 1718.9971 -0.95878243 8.382985e-39
-0.50040001 1718.9971 -0.95878243 1.0508507e-38
-0.50569528 1718.9971 -0.95878243 9.6787461e-39
-0.5109905 1718.9971 -0.95878243 9.1273898e-39
-0.51628578 1718.9971 -0.95878243 9.4039767e-39
-0.5170781 1719.0057 -0.95050514 6.6377602e-39
-0.52757716 1719.0057 -0.95050514 8.6653228e-39
-0.53282672 1719.0057 -0.95050514 6.7292146e-39
-0.53378099 1719.0137 -0.94291764 8.9440579e-39
-0.53898859 1719.0137 -0.94291764 8.2064929e-39
-0.54857528 1719.0057 -0.95050514 8.2929123e-39
-0.55382478 1719.0057 -0.95050514 9.7680424e-39
-0.55907434 1719.0057 -0.95050514 7.9273794e-39
-0.56432384 1719.0057 -0.95050514 8.8493357e-39
-0.57453334 1718.9971 -0.95878243 8.6638711e-39
-0.57982862 1718.9971 -0.95878243 8.6638711e-39
-0.61160004 1718.9971 -0.95878243 7.8366285e-39
-0.61689526 1718.9971 -0.95878243 8.2018013e-39
-0.62219054 1718.9971 -0.95878243 8.2018013e-39
-0.62748575 1718.9971 -0.95878243 7.8355593e-39
-0.63278097 1718.9971 -0.95878243 5.5306686e-39
-0.63256764 1719.0057 -0.95050514 7.6522597e-39
0.33636954 1719.4945 -0.47962573 4.1577759e-39
0.33371049 1719.4945 -0.47962573 4.1577759e-39
0.33200002 1719.493 -0.48100007 4.2499715e-39
0.26408765 1719.4452 -0.52635145 4.9882554e-39
0.26253334 1719.4423 -0.5291 5.0804482e-39
0.26061144 1719.4402 -0.53116149 5.5414264e-39
0.26197144 1719.4242 -0.5462786 4.8053061e-39
0.25764 1719.4271 -0.54353005 5.0804482e-39
0.25366098 1719.4293 -0.54146862 4.896057e-39
0.25065908 1719.4293 -0.54146862 4.6212553e-39
0.24765716 1719.4293 -0.54146862 4.6212553e-39
0.24465525 1719.4293 -0.54146862 4.2525022e-39
0.24165335 1719.4293 -0.54146862 4.805676e-39
0.23865144 1719.4293 -0.54146862 2.3171129e-39
0.23564954 1719.4293 -0.54146862 3.2390692e-39
0.23264763 1719.4293 -0.54146862 2.3156611e-39
0.23052001 1719.4271 -0.54353005 3.0532262e-39
0.22750668 1719.4271 -0.54353005 4.0612642e-39
0.20418668 1719.4163 -0.55383718 3.4176927e-39
0.2021143 1719.4133 -0.55658579 3.5098883e-39
0.19902858 1719.4133 -0.55658579 3.2333014e-39
0.19594286 1719.4133 -0.55658579 3.415892e-39
0.19380954 1719.4104 -0.55933428 3.415892e-39
0.19070858 1719.4104 -0.55933428 3.4159046e-39
0.18945144 1719.4047 -0.56483144 3.9690784e-39
0.19085334 1719.3901 -0.57857436 3.3287439e-39
0.18356192 1719.3931 -0.57582575 3.6993411e-39
0.18036954 1719.3931 -0.57582575 5.2666668e-39
0.17717716 1719.3931 -0.57582575 5.541439e-39
0.17079239 1719.3931 -0.57582575 4.7113028e-39
0.16760001 1719.3931 -0.57582575 4.9878897e-39
0.17657144 1719.3481 -0.61842865 5.5428711e-39
0.17314287 1719.3481 -0.61842865 4.5287192e-39
0.1697143 1719.3481 -0.61842865 4.6212679e-39
0.16628572 1719.3481 -0.61842865 5.358833e-39
0.16285716 1719.3481 -0.61842865 5.080821e-39
0.16190858 1719.338 -0.6280486 5.1730166e-39
0.15842667 1719.338 -0.6280486 5.2648423e-39
0.15494478 1719.338 -0.6280486 5.080451e-39
0.15146287 1719.338 -0.6280486 5.2647974e-39
0.14798096 1719.338 -0.6280486 6.0023625e-39
0.14410287 1719.3235 -0.64179146 5.1722935e-39
0.14054477 1719.3235 -0.64179146 4.3464985e-39
0.13698667 1719.3235 -0.64179146 4.3464985e-39
0.13342857 1719.3235 -0.64179146 4.3428804e-39
0.12917525 1719.3271 -0.63835573 5.172641e-39
0.12496001 1719.3308 -0.63492006 5.8176349e-39
0.12078287 1719.3344 -0.63148433 4.4347005e-39
0.11728191 1719.3344 -0.63148433 3.2300714e-39
0.11316191 1719.338 -0.6280486 4.336419e-39
0.10968 1719.338 -0.6280486 4.0612642e-39
0.11117715 1719.2583 -0.70363438 3.2311532e-39
0.1072762 1719.2583 -0.70363438 3.0471221e-39
0.10266858 1719.2634 -0.69882435 1.6641877e-39
0.098794289 1719.2634 -0.69882435 2.0283039e-39
0.094360009 1719.2677 -0.69470149 2.6736733e-39
0.0053371433 1719.3235 -0.64179146 2.3048907e-39
0.0017790478 1719.3235 -0.64179146 2.2126951e-39
-0.0017885716 1719.3199 -0.64522719 1.7538848e-39
-0.0053657144 1719.3199 -0.64522719 1.7538848e-39
-0.0089428574 1719.3199 -0.64522719 1.938276e-39
-0.012520001 1719.3199 -0.64522719 1.8460804e-39
-0.016097143 1719.3199 -0.64522719 1.938276e-39
-0.019674286 1719.3199 -0.64522719 1.8460804e-39
-0.023375239 1719.3163 -0.64866292 4.0605608e-39
-0.046504766 1719.0693 -0.88297868 4.5272716e-39
-0.052200004 1719.0548 -0.89672154 5.3544875e-39
-0.057171434 1719.0548 -0.89672154 5.6310744e-39
-0.06214286 1719.0548 -0.89672154 4.8034984e-39
-0.067114294 1719.0548 -0.89672154 5.2644765e-39
-0.072085716 1719.0548 -0.89672154 5.0793692e-39
-0.077057146 1719.0548 -0.89672154 5.1715649e-39
-0.082028575 1719.0548 -0.89672154 5.8997916e-39
-0.087000005 1719.0548 -0.89672154 7.2827261e-39
-0.091266669 1719.062 -0.88985008 7.8355369e-39
-0.097685717 1719.0476 -0.90359288 5.2540593e-39
-0.10269524 1719.0476 -0.90359288 7.0079216e-39
-0.11286477 1719.002 -0.94688296 6.915726e-39
-0.11914287 1718.9933 -0.95512867 7.4685747e-39
-0.12542287 1718.9852 -0.96268719 7.3763791e-39
-0.13076001 1718.9852 -0.96268719 7.3749091e-39
-0.13609715 1718.9852 -0.96268719 8.0202785e-39
-0.1414343 1718.9852 -0.96268719 6.4543947e-39
-0.14677143 1718.9852 -0.96268719 8.9436767e-39
-0.15210858 1718.9852 -0.96268719 7.4692501e-39
-0.15620953 1718.9933 -0.95512867 6.5472938e-39
-0.16150478 1718.9933 -0.95512867 8.6663738e-39
-0.17739049 1718.9933 -0.95512867 7.3745588e-39
-0.19857144 1718.9933 -0.95512867 8.2068432e-39
-0.25152382 1718.9933 -0.95512867 9.6772761e-39
-0.26418859 1718.9852 -0.96268719 7.7437267e-39
-0.26740953 1718.9933 -0.95512867 8.2032404e-39
-0.27800003 1718.9933 -0.95512867 7.1923381e-39
-0.35492003 1718.9852 -0.96268719 8.0203009e-39
-0.36025718 1718.9852 -0.96268719 8.4812791e-39
-0.36801907 1718.9933 -0.95512867 9.7738186e-39
-0.41567621 1718.9933 -0.95512867 1.0786173e-38
-0.52158099 1718.9933 -0.95512867 7.1894893e-39
-0.52757716 1719.002 -0.94688296 8.3876541e-39
-0.53282672 1719.002 -0.94688296 9.2174148e-39
-0.53378099 1719.0099 -0.93932438 9.9560714e-39
-0.53898859 1719.0099 -0.93932438 8.4809414e-39
-0.54857528 1719.002 -0.94688296 7.0065175e-39
-0.55382478 1719.002 -0.94688296 7.0987132e-39
-0.55907434 1719.002 -0.94688296 6.6373791e-39
-0.56432384 1719.002 -0.94688296 7.3749441e-39
-0.57453334 1718.9933 -0.95512867 7.8355593e-39
-0.57982862 1718.9933 -0.95512867 8.1121462e-39
-0.58512384 1718.9933 -0.95512867 6.1756751e-39
-0.61689526 1718.9933 -0.95512867 7.3742057e-39
-0.62219054 1718.9933 -0.95512867 8.5727488e-39
-0.62748575 1718.9933 -0.95512867 7.7422875e-39
-0.62731814 1719.002 -0.94688296 6.5437443e-39
-0.63256764 1719.002 -0.94688296 5.0707947e-39
0.25960001 1719.4402 -0.52707601 5.5371076e-39
0.26065335 1719.4249 -0.54145086 4.4368767e-39
0.25666288 1719.4271 -0.5393973 5.1712117e-39
0.25237334 1719.4301 -0.53665924 5.2634074e-39
0.24938668 1719.4301 -0.53665924 4.8045648e-39
0.24640001 1719.4301 -0.53665924 4.8967604e-39
0.24465525 1719.4271 -0.5393973 4.8978744e-39
0.24042669 1719.4301 -0.53665924 2.8695706e-39
0.23865144 1719.4271 -0.5393973 4.7113028e-39
0.23564954 1719.4271 -0.5393973 3.4205639e-39
0.23264763 1719.4271 -0.5393973 3.1443526e-39
0.23052001 1719.4249 -0.54145086 3.052157e-39
0.22750668 1719.4249 -0.54145086 3.1447057e-39
0.20725715 1719.4141 -0.55171859 3.5098883e-39
0.20418668 1719.4141 -0.55171859 3.6020839e-39
0.2021143 1719.4111 -0.55445665 3.418043e-39
0.19902858 1719.4111 -0.55445665 3.6024343e-39
0.19594286 1719.4111 -0.55445665 3.1411058e-39
0.19380954 1719.4082 -0.55719465 2.7723233e-39
0.19070858 1719.4082 -0.55719465 2.2212921e-39
0.19406097 1719.3878 -0.57636112 2.9588571e-39
0.19085334 1719.3878 -0.57636112 1.8539865e-39
0.18497144 1719.3966 -0.56814688 2.3149647e-39
0.18356192 1719.3907 -0.573623 4.1538354e-39
0.17950858 1719.3937 -0.570885 4.246031e-39
0.17717716 1719.3907 -0.573623 4.5265584e-39
0.17398477 1719.3907 -0.573623 4.618754e-39
0.17079239 1719.3907 -0.573623 4.5265584e-39
0.17559049 1719.3494 -0.61264032 4.4383032e-39
0.17218097 1719.3494 -0.61264032 4.5304988e-39
0.1697143 1719.3457 -0.61606294 5.4492434e-39
0.16628572 1719.3457 -0.61606294 3.2365482e-39
0.16285716 1719.3457 -0.61606294 6.184628e-39
0.16013715 1719.3428 -0.61880094 5.7236498e-39
0.15756001 1719.3391 -0.6222235 5.2648395e-39
0.15494478 1719.3354 -0.62564611 5.1726438e-39
0.15146287 1719.3354 -0.62564611 5.0807621e-39
0.14798096 1719.3354 -0.62564611 5.8183271e-39
0.14449906 1719.3354 -0.62564611 5.2648423e-39
0.14256001 1719.3282 -0.63249123 5.1726467e-39
0.13904001 1719.3282 -0.63249123 4.6205589e-39
0.13625334 1719.3246 -0.63591379 4.343972e-39
0.1327143 1719.3246 -0.63591379 4.7138013e-39
0.12917525 1719.3246 -0.63591379 5.2669751e-39
0.12496001 1719.3282 -0.63249123 5.9991423e-39
0.12144001 1719.3282 -0.63249123 3.9708384e-39
0.11728191 1719.3319 -0.62906867 2.9552824e-39
0.11378096 1719.3319 -0.62906867 4.5226081e-39
0.10654286 1719.2606 -0.69615114 1.8464307e-39
0.10266858 1719.2606 -0.69615114 1.9386264e-39
0.098794289 1719.2606 -0.69615114 1.7542351e-39
0.093800008 1719.2693 -0.6879369 1.9386264e-39
0.0053657144 1719.3173 -0.64275897 1.9386264e-39
0.0017885716 1719.3173 -0.64275897 2.030822e-39
-0.0017980954 1719.3137 -0.64618152 1.7542351e-39
-0.005394286 1719.3137 -0.64618152 1.8464307e-39
-0.0089428574 1719.3173 -0.64275897 2.0301241e-39
-0.012520001 1719.3173 -0.64275897 1.8457329e-39
-0.016182858 1719.3137 -0.64618152 1.938276e-39
-0.019904763 1719.3093 -0.65028864 2.0304717e-39
-0.023647621 1719.3057 -0.6537112 2.030822e-39
-0.027285716 1719.3057 -0.6537112 3.9669302e-39
-0.052200004 1719.0513 -0.89329123 4.7109524e-39
-0.057171434 1719.0513 -0.89329123 4.9875393e-39
-0.06214286 1719.0513 -0.89329123 4.7113028e-39
-0.067114294 1719.0513 -0.89329123 4.895694e-39
-0.072085716 1719.0513 -0.89329123 4.8953437e-39
-0.077057146 1719.0513 -0.89329123 4.8031481e-39
-0.082028575 1719.0513 -0.89329123 7.5614738e-39
-0.087000005 1719.0513 -0.89329123 8.4834301e-39
-0.091266669 1719.0585 -0.88644612 6.5465679e-39
-0.096942864 1719.0513 -0.89329123 5.8090029e-39
-0.10191429 1719.0513 -0.89329123 6.8217479e-39
-0.11384763 1718.9894 -0.95147496 8.1124868e-39
-0.11914287 1718.9894 -0.95147496 6.7302558e-39
-0.12542287 1718.9814 -0.95900452 7.4678208e-39
-0.13076001 1718.9814 -0.95900452 7.3770335e-39
-0.13609715 1718.9814 -0.95900452 7.008251e-39
-0.14032382 1718.9894 -0.95147496 4.2467345e-39
-0.26740953 1718.9894 -0.95147496 9.2180986e-39
-0.52757716 1718.9982 -0.94326079 1.050527e-38
-0.53282672 1718.9982 -0.94326079 8.7535528e-39
-0.53378099 1719.0061 -0.93573117 7.4700166e-39
-0.53898859 1719.0061 -0.93573117 7.4700166e-39
-0.54419625 1719.0061 -0.93573117 8.5741964e-39
-0.55382478 1718.9982 -0.94326079 7.1912619e-39
-0.55907434 1718.9982 -0.94326079 7.3738525e-39
-0.56432384 1718.9982 -0.94326079 7.6504394e-39
