# .PCD v0.7 - Point Cloud Data file format
VERSION 0.7
FIELDS x y z
SIZE 4 4 4
TYPE F F F
COUNT 1 1 1
WIDTH 1998
HEIGHT 1
VIEWPOINT 0 0 0 1 0 0 0
POINTS 1998
DATA ascii
0 0 0
418.30325 253.006 962
421.6767 253.006 962
425.05011 253.006 962
428.42352 253.006 962
431.79691 253.006 962
433.81323 252.217 959
437.17615 252.217 959
438.24219 250.90199 954
441.58755 250.90199 954
445.86563 251.42799 956
450.62772 252.217 959
453.99063 252.217 959
458.78424 253.006 962
464.55972 254.321 967
467.95065 254.321 967
472.80389 255.11 970
476.20535 255.11 970
481.09018 255.899 973
484.50214 255.899 973
488.91699 256.42499 975
495.36575 258.00299 981
510.50055 264.052 1004
514.02124 264.052 1004
515.99554 263.263 1001
516.39172 261.685 995
519.88086 261.685 995
523.37 261.685 995
528.44769 262.474 998
0 0 0
0 0 0
0 0 0
0 0 0
550.86932 264.841 1007
551.09729 263.263 1001
551.28308 261.685 995
554.77222 261.685 995
-0 0 0
-0 0 0
-0 0 0
-580.27618 280.89801 1054
-576.5802 280.89801 1054
-574.51477 281.69754 1057
-574.04834 283.2966 1063
-570.3208 283.2966 1063
-568.72522 284.36261 1067
-564.98364 284.36261 1067
-562.82001 285.16214 1070
-559.06787 285.16214 1070
-556.87274 285.96164 1073
-555.17194 287.02768 1077
-552.93121 287.82721 1080
-551.17786 288.89322 1084
-547.37665 288.89322 1084
-541.56964 287.82721 1080
-537.78241 287.82721 1080
-533.99524 287.82721 1080
-530.20801 287.82721 1080
-524.95856 287.02768 1077
-521.18188 287.02768 1077
-515.48352 285.96164 1073
-511.72089 285.96164 1073
-509.85181 287.02768 1077
-506.07513 287.02768 1077
-502.29849 287.02768 1077
-498.52176 287.02768 1077
-494.74512 287.02768 1077
-490.96841 287.02768 1077
-487.19174 287.02768 1077
-484.76163 287.82721 1080
-480.97443 287.82721 1080
-477.18723 287.82721 1080
-476.46835 289.69275 1087
-473.96109 290.49225 1090
-470.13882 290.49225 1090
-466.31656 290.49225 1090
-464.19153 291.55829 1094
-460.35522 291.55829 1094
-459.43994 293.42383 1101
-457.23428 294.48987 1105
-453.35941 294.48987 1105
-450.7049 295.2894 1108
-446.81949 295.2894 1108
-442.93408 295.2894 1108
-440.63373 296.35541 1112
-0 0 0
-0 0 0
-0 0 0
-0 0 0
-0 0 0
-0 0 0
-0 0 0
-0 0 0
-638.86914 522.08655 1959
-624.57941 515.95691 1936
-614.59949 513.29181 1926
-597.7464 504.76361 1894
-587.67175 501.83206 1883
-577.98285 499.16696 1873
-571.41486 499.16696 1873
-303.68436 268.37222 1007
-300.15314 268.37222 1007
-296.62192 268.37222 1007
-293.09073 268.37222 1007
-290.42215 269.17175 1010
-286.88043 269.17175 1010
-283.33868 269.17175 1010
-278.96585 268.37222 1007
-275.43466 268.37222 1007
-271.90344 268.37222 1007
-268.37222 268.37222 1007
-264.841 268.37222 1007
-261.30978 268.37222 1007
-257.77859 268.37222 1007
-253.48993 267.57269 1004
-249.96925 267.57269 1004
-246.44855 267.57269 1004
-242.92784 267.57269 1004
-239.40717 267.57269 1004
-235.88646 267.57269 1004
-231.67146 266.77316 1001
-228.16127 266.77316 1001
-224.65108 266.77316 1001
-221.14095 266.77316 1001
-217.63074 266.77316 1001
-214.12061 266.77316 1001
-210.61041 266.77316 1001
-207.10022 266.77316 1001
-203.59007 266.77316 1001
-200.07988 266.77316 1001
-196.56973 266.77316 1001
-192.48094 265.97363 998
-188.41319 265.17413 995
-184.92407 265.17413 995
-181.43494 265.17413 995
-177.94582 265.17413 995
-174.45668 265.17413 995
-170.96753 265.17413 995
-167.47841 265.17413 995
-164.4837 265.97363 998
-160.98407 265.97363 998
-157.48441 265.97363 998
-153.05899 264.3746 992
-149.58038 264.3746 992
-146.10176 264.3746 992
-142.62317 264.3746 992
-139.14453 264.3746 992
-136.07619 265.17413 995
-132.58708 265.17413 995
-129.09793 265.17413 995
-125.98753 265.97363 998
-122.11967 265.17413 995
-118.63052 265.17413 995
-115.83573 266.77316 1001
-112.32554 266.77316 1001
-108.48927 265.97363 998
-104.674 265.17413 995
-101.18485 265.17413 995
-97.695747 265.17413 995
-94.206596 265.17413 995
-91.264519 266.77316 1001
-87.754333 266.77316 1001
-84.496628 267.57269 1004
-80.97596 267.57269 1004
-77.455246 267.57269 1004
-73.934578 267.57269 1004
-70.413872 267.57269 1004
-66.893166 267.57269 1004
-63.183128 266.77316 1001
-59.315262 265.17413 995
-55.657829 264.3746 992
-52.179203 264.3746 992
-48.700573 264.3746 992
-45.221981 264.3746 992
-41.743355 264.3746 992
-38.264763 264.3746 992
-34.786133 264.3746 992
-31.307508 264.3746 992
-27.744755 263.57507 989
-24.276648 263.57507 989
-20.808575 263.57507 989
-17.393066 264.3746 992
-13.91444 264.3746 992
-10.498966 265.97363 998
-7.0203404 266.77316 1001
-3.5101867 266.77316 1001
0 266.77316 1001
3.4891469 265.17413 995
6.9782939 265.17413 995
10.498934 265.97363 998
14.040681 266.77316 1001
17.550867 266.77316 1001
21.061054 266.77316 1001
24.571239 266.77316 1001
28.081362 266.77316 1001
31.591547 266.77316 1001
34.996536 265.97363 998
38.496204 265.97363 998
42.122108 266.77316 1001
45.495472 265.97363 998
48.995132 265.97363 998
52.652603 266.77316 1001
56.162788 266.77316 1001
59.672977 266.77316 1001
63.183094 266.77316 1001
66.693283 266.77316 1001
70.203468 266.77316 1001
73.713654 266.77316 1001
77.223839 266.77316 1001
80.733963 266.77316 1001
84.244148 266.77316 1001
87.491333 265.97363 998
90.717484 265.17413 995
94.206627 265.17413 995
97.695709 265.17413 995
101.18485 265.17413 995
104.674 265.17413 995
108.48927 265.97363 998
111.98894 265.97363 998
115.8357 266.77316 1001
118.9882 265.97363 998
122.48787 265.97363 998
125.98753 265.97363 998
129.48721 265.97363 998
132.9868 265.97363 998
136.89676 266.77316 1001
140.40694 266.77316 1001
143.48581 265.97363 998
146.54364 265.17413 995
150.0327 265.17413 995
153.52185 265.17413 995
157.011 265.17413 995
160.50015 265.17413 995
163.9893 265.17413 995
167.47838 265.17413 995
171.483 265.97363 998
174.98267 265.97363 998
178.48233 265.97363 998
181.43497 265.17413 995
184.92404 265.17413 995
188.41319 265.17413 995
191.90234 265.17413 995
195.39149 265.17413 995
198.88065 265.17413 995
202.97987 265.97363 998
205.85886 265.17413 995
209.34801 265.17413 995
212.83716 265.17413 995
216.32631 265.17413 995
219.81537 265.17413 995
223.30452 265.17413 995
226.79367 265.17413 995
230.97714 265.97363 998
233.77197 265.17413 995
237.26105 265.17413 995
240.7502 265.17413 995
244.23935 265.17413 995
247.7285 265.17413 995
251.21764 265.17413 995
253.93875 264.3746 992
257.41739 264.3746 992
259.58102 263.04208 987
263.04208 263.04208 987
266.5032 263.04208 987
269.96423 263.04208 987
273.97937 263.57507 989
279.13068 265.17413 995
281.7677 264.3746 992
284.3837 263.57507 989
287.26962 263.04208 987
290.73071 263.04208 987
275.11554 245.98564 923
278.3522 245.98564 923
282.19904 246.51866 925
284.82547 245.98564 923
288.06213 245.98564 923
313.07523 264.3746 992
316.55383 264.3746 992
321.00031 265.17413 995
324.48938 265.17413 995
326.98965 264.3746 992
329.46887 263.57507 989
332.93698 263.57507 989
336.40509 263.57507 989
347.08984 269.17175 1010
350.63162 269.17175 1010
354.17334 269.17175 1010
356.65256 268.37222 1007
360.18378 268.37222 1007
363.71497 268.37222 1007
367.24619 268.37222 1007
370.7774 268.37222 1007
373.19351 267.57269 1004
376.71423 267.57269 1004
379.09869 266.77316 1001
381.46219 265.97363 998
383.80469 265.17413 995
387.29382 265.17413 995
390.78299 265.17413 995
394.27203 265.17413 995
396.56192 264.3746 992
398.83075 263.57507 989
402.29886 263.57507 989
405.76697 263.57507 989
408.40744 263.04208 987
411.86853 263.04208 987
416.1712 263.57507 989
419.63931 263.57507 989
423.10742 263.57507 989
403.28418 249.18375 935
412.21567 252.6483 948
420.36169 255.57988 959
423.72458 255.57988 959
427.08749 255.57988 959
429.10376 254.78038 956
431.55145 254.24736 954
434.89682 254.24736 954
435.48596 252.6483 948
438.81027 252.6483 948
443.53369 253.44783 951
449.21802 254.78038 956
452.5704 254.78038 956
457.35352 255.57988 959
463.1185 256.91241 964
467.95065 257.71194 967
472.80389 258.51144 970
476.20535 258.51144 970
481.09018 259.31097 973
484.50214 259.31097 973
488.91699 259.84399 975
495.36575 261.44302 981
495.755 259.84399 975
499.17401 259.84399 975
515.99554 266.77316 1001
516.39172 265.17413 995
518.31342 264.3746 992
521.79199 264.3746 992
0 0 0
0 0 0
0 0 0
0 0 0
0 0 0
549.22821 267.57269 1004
552.7489 267.57269 1004
549.62091 264.3746 992
553.09955 264.3746 992
-0 0 0
-0 0 0
-0 0 0
-581.92786 285.40408 1057
-578.22131 285.40408 1057
-574.51477 285.40408 1057
-574.04834 287.02417 1063
-570.3208 287.02417 1063
-568.72522 288.10422 1067
-564.98364 288.10422 1067
-562.82001 288.91425 1070
-559.06787 288.91425 1070
-556.87274 289.7243 1073
-556.71844 291.61441 1080
-556.51501 293.50449 1087
-551.17786 292.69446 1084
-545.35681 291.61441 1080
-541.56964 291.61441 1080
-537.78241 291.61441 1080
-532.5119 290.80435 1077
-526.77148 289.7243 1073
-523.00879 289.7243 1073
-517.79443 288.91425 1070
-514.0423 288.91425 1070
-510.29016 288.91425 1070
-507.95822 289.7243 1073
-504.19553 289.7243 1073
-500.43292 289.7243 1073
-496.67026 289.7243 1073
-494.74512 290.80435 1077
-490.96841 290.80435 1077
-487.19174 290.80435 1077
-483.41507 290.80435 1077
-480.97443 291.61441 1080
-477.18723 291.61441 1080
-476.46835 293.50449 1087
-473.96109 294.31451 1090
-470.13882 294.31451 1090
-468.0278 295.39459 1094
-464.19153 295.39459 1094
-461.61761 296.20462 1097
-459.43994 297.28467 1101
-457.23428 298.36472 1105
-453.35941 298.36472 1105
-450.7049 299.17477 1108
-446.81949 299.17477 1108
-444.53314 300.25482 1112
-0 0 0
-0 0 0
-0 0 0
-0 0 0
-0 0 0
-0 0 0
-0 0 0
-0 0 0
-597.68683 505.73499 1873
-591.11884 505.73499 1873
-584.55078 505.73499 1873
-577.98285 505.73499 1873
-571.41486 505.73499 1873
-564.84692 505.73499 1873
-301.94156 273.5235 1013
-298.38925 273.5235 1013
-293.96387 272.71347 1010
-290.42215 272.71347 1010
-286.88043 272.71347 1010
-283.33868 272.71347 1010
-279.79694 272.71347 1010
-276.25522 272.71347 1010
-271.90344 271.90341 1007
-268.37222 271.90341 1007
-264.841 271.90341 1007
-261.30978 271.90341 1007
-257.77859 271.90341 1007
-253.48993 271.09338 1004
-249.96925 271.09338 1004
-246.44855 271.09338 1004
-242.92784 271.09338 1004
-239.40717 271.09338 1004
-235.18161 270.28333 1001
-231.67146 270.28333 1001
-228.16127 270.28333 1001
-224.65108 270.28333 1001
-221.14095 270.28333 1001
-217.63074 270.28333 1001
-214.12061 270.28333 1001
-210.61041 270.28333 1001
-207.10022 270.28333 1001
-203.59007 270.28333 1001
-200.07988 270.28333 1001
-196.56973 270.28333 1001
-192.48094 269.4733 998
-188.41319 268.66327 995
-184.92407 268.66327 995
-181.43494 268.66327 995
-177.94582 268.66327 995
-174.45668 268.66327 995
-170.96753 268.66327 995
-167.47841 268.66327 995
-163.98927 268.66327 995
-160.50015 268.66327 995
-157.011 268.66327 995
-153.05899 267.85321 992
-149.58038 267.85321 992
-146.10176 267.85321 992
-142.19185 267.04318 989
-138.72374 267.04318 989
-135.25563 267.04318 989
-131.78755 267.04318 989
-128.31946 267.04318 989
-124.85138 267.04318 989
-121.38327 267.04318 989
-117.91516 267.04318 989
-114.21564 266.50317 987
-110.41792 265.69312 984
-106.96738 265.69312 984
-103.51681 265.69312 984
-100.37131 266.50317 987
-96.910248 266.50317 987
-93.449158 266.50317 987
-89.988098 266.50317 987
-86.527 266.50317 987
-83.48671 267.85321 992
-80.492035 269.4733 998
-77.223808 270.28333 1001
-73.492729 269.4733 998
-69.221603 266.50317 987
-65.760513 266.50317 987
-62.42569 267.04318 989
-58.957581 267.04318 989
-55.48951 267.04318 989
-52.0214 267.04318 989
-48.553295 267.04318 989
-45.08522 267.04318 989
-41.617115 267.04318 989
-38.14904 267.04318 989
-34.786133 267.85321 992
-31.212828 267.04318 989
-27.744755 267.04318 989
-24.276648 267.04318 989
-20.808575 267.04318 989
-17.340467 267.04318 989
-13.91444 267.85321 992
-10.467407 268.66327 995
-6.9782605 268.66327 995
-3.4891469 268.66327 995
0 268.66327 995
3.4786267 267.85321 992
6.9572535 267.85321 992
10.435814 267.85321 992
13.956521 268.66327 995
17.445667 268.66327 995
20.997932 269.4733 998
24.42396 268.66327 995
27.913042 268.66327 995
31.402189 268.66327 995
34.891335 268.66327 995
38.380482 268.66327 995
41.869629 268.66327 995
45.221947 267.85321 992
48.700573 267.85321 992
52.179203 267.85321 992
55.826149 268.66327 995
59.315296 268.66327 995
62.804379 268.66327 995
66.293526 268.66327 995
69.572266 267.85321 992
73.050896 267.85321 992
76.760963 268.66327 995
80.250046 268.66327 995
83.739189 268.66327 995
87.22834 268.66327 995
90.443962 267.85321 992
93.922592 267.85321 992
97.401146 267.85321 992
100.87978 267.85321 992
104.35841 267.85321 992
107.83704 267.85321 992
111.6523 268.66327 995
115.14138 268.66327 995
118.27284 267.85321 992
121.75147 267.85321 992
125.2301 267.85321 992
128.70872 267.85321 992
132.18729 267.85321 992
136.07619 268.66327 995
139.14453 267.85321 992
142.62317 267.85321 992
146.10179 267.85321 992
149.58035 267.85321 992
153.05899 267.85321 992
156.06421 267.04318 989
159.53232 267.04318 989
163.00043 267.04318 989
166.46846 267.04318 989
169.93657 267.04318 989
173.93068 267.85321 992
177.40929 267.85321 992
180.88792 267.85321 992
184.36649 267.85321 992
187.27704 267.04318 989
190.74515 267.04318 989
194.21324 267.04318 989
198.28099 267.85321 992
201.75955 267.85321 992
205.23819 267.85321 992
208.71681 267.85321 992
211.55371 267.04318 989
215.02182 267.04318 989
218.48987 267.04318 989
221.95796 267.04318 989
225.42607 267.04318 989
229.5885 267.85321 992
232.36229 267.04318 989
235.35342 266.50317 987
238.81453 266.50317 987
242.2756 266.50317 987
245.73669 266.50317 987
249.1978 266.50317 987
251.89087 265.69312 984
255.34143 265.69312 984
258.00302 264.88306 981
261.44308 264.88306 981
264.88312 264.88306 981
268.32312 264.88306 981
271.76315 264.88306 981
276.0448 265.69312 984
280.3475 266.50317 987
278.92032 261.9129 970
282.32172 261.9129 970
286.60687 262.72299 973
274.22134 248.41226 920
277.44748 248.41226 920
283.11426 250.57237 928
305.1922 267.04318 989
308.66031 267.04318 989
312.12842 267.04318 989
315.59653 267.04318 989
319.06464 267.04318 989
322.53265 267.04318 989
326.00076 267.04318 989
329.46887 267.04318 989
332.93698 267.04318 989
336.40509 267.04318 989
339.18585 266.50317 987
342.64691 266.50317 987
346.108 266.50317 987
351.33997 267.85321 992
355.89163 268.66327 995
361.54782 270.28333 1001
366.1521 271.09338 1004
369.67282 271.09338 1004
370.96329 269.4733 998
374.46295 269.4733 998
376.82639 268.66327 995
379.16885 267.85321 992
382.64749 267.85321 992
386.1261 267.85321 992
389.60474 267.85321 992
393.08331 267.85321 992
397.7612 268.66327 995
401.25034 268.66327 995
402.29886 267.04318 989
405.76697 267.04318 989
408.40744 266.50317 987
411.86853 266.50317 987
415.32962 266.50317 987
418.79071 266.50317 987
400.00552 252.46246 935
403.28418 252.46246 935
412.21567 255.97264 948
415.54001 255.97264 948
418.86435 255.97264 948
424.86075 257.59271 954
429.10376 258.13272 956
431.55145 257.59271 954
434.89682 257.59271 954
434.5672 255.43262 946
437.88455 255.43262 946
442.13455 255.97264 948
449.21802 258.13272 956
452.5704 258.13272 956
457.35352 258.94278 959
463.1185 260.29285 964
467.95065 261.10287 967
472.80389 261.9129 970
476.20535 261.9129 970
481.09018 262.72299 973
484.50214 262.72299 973
488.91699 263.263 975
493.85086 264.07303 978
494.7381 262.72299 973
498.15009 262.72299 973
500.01566 261.9129 970
503.41705 261.9129 970
518.31342 267.85321 992
521.79199 267.85321 992
525.27063 267.85321 992
513.82489 260.29285 964
517.20526 260.29285 964
522.20581 261.10287 967
525.59674 261.10287 967
0 0 0
546.14233 267.85321 992
546.85065 266.50317 987
550.31171 266.50317 987
-0 0 0
-0 0 0
-0 0 0
-581.92786 289.11063 1057
-578.22131 289.11063 1057
-576.14532 289.93121 1060
-574.04834 290.75174 1063
-572.46686 291.84583 1067
-568.72522 291.84583 1067
-566.57214 292.66641 1070
-564.39801 293.48694 1073
-560.63531 293.48694 1073
-819.48004 431.88806 1579
-813.94293 431.88806 1579
-808.40594 431.88806 1579
-549.14404 295.40161 1080
-543.84192 294.58102 1077
-538.05945 293.48694 1073
-534.29675 293.48694 1073
-530.53418 293.48694 1073
-525.29871 292.66641 1070
-521.54657 292.66641 1070
-516.34265 291.84583 1067
-512.60101 291.84583 1067
-508.85944 291.84583 1067
-506.53802 292.66641 1070
-502.78589 292.66641 1070
-500.43292 293.48694 1073
-496.67026 293.48694 1073
-494.74512 294.58102 1077
-490.96841 294.58102 1077
-487.19174 294.58102 1077
-483.41507 294.58102 1077
-480.97443 295.40161 1080
-477.18723 295.40161 1080
-476.46835 297.31622 1087
-473.96109 298.13681 1090
-470.13882 298.13681 1090
-468.0278 299.23087 1094
-464.19153 299.23087 1094
-463.30081 301.14551 1101
-461.10916 302.23959 1105
-457.23428 302.23959 1105
-454.59024 303.06015 1108
-452.33197 304.15424 1112
-449.64236 304.97479 1115
-447.33145 306.06888 1119
-0 0 0
-0 0 0
-0 0 0
-0 0 0
-0 0 0
-0 0 0
-604.30042 506.83255 1853
-597.80249 506.83255 1853
-594.49579 509.56775 1863
-587.96283 509.56775 1863
-581.42987 509.56775 1863
-577.98285 512.30292 1873
-571.41486 512.30292 1873
-564.84692 512.30292 1873
-302.83575 277.8963 1016
-298.38925 277.07574 1013
-294.83704 277.07574 1013
-291.28476 277.07574 1013
-287.73254 277.07574 1013
-284.18027 277.07574 1013
-280.62802 277.07574 1013
-276.25522 276.25519 1010
-272.71347 276.25519 1010
-269.17175 276.25519 1010
-264.841 275.43463 1007
-261.30978 275.43463 1007
-257.77859 275.43463 1007
-254.24736 275.43463 1007
-249.96925 274.61407 1004
-246.44855 274.61407 1004
-242.92784 274.61407 1004
-239.40717 274.61407 1004
-235.18161 273.79352 1001
-231.67146 273.79352 1001
-228.16127 273.79352 1001
-224.65108 273.79352 1001
-221.14095 273.79352 1001
-217.63074 273.79352 1001
-214.12061 273.79352 1001
-210.61041 273.79352 1001
-207.10022 273.79352 1001
-203.59007 273.79352 1001
-200.07988 273.79352 1001
-196.56973 273.79352 1001
-192.48094 272.97293 998
-188.98128 272.97293 998
-184.92407 272.1524 995
-181.43494 272.1524 995
-177.94582 272.1524 995
-174.45668 272.1524 995
-170.96753 272.1524 995
-167.47841 272.1524 995
-163.98927 272.1524 995
-160.01622 271.33185 992
-156.53761 271.33185 992
-152.5961 270.51126 989
-149.12802 270.51126 989
-145.65991 270.51126 989
-142.19185 270.51126 989
-138.72374 270.51126 989
-135.25563 270.51126 989
-131.78755 270.51126 989
-128.31946 270.51126 989
-124.85138 270.51126 989
-121.38327 270.51126 989
-117.91516 270.51126 989
-113.86849 269.14368 984
-110.41792 269.14368 984
-106.64126 268.32312 981
-103.2012 268.32312 981
-100.06623 269.14368 984
-96.615692 269.14368 984
-92.881073 268.32312 981
-89.441055 268.32312 981
-86.000999 268.32312 981
-82.813431 269.14368 984
-79.362892 269.14368 984
-75.68087 268.32312 981
-72.240852 268.32312 981
-68.590401 267.50253 978
-65.160866 267.50253 978
-61.731369 267.50253 978
-58.480675 268.32312 981
-55.040653 268.32312 981
-51.600601 268.32312 981
-48.307827 269.14368 984
-44.857288 269.14368 984
-41.406715 269.14368 984
-38.071892 269.96423 987
-34.5056 269.14368 984
-31.055027 269.14368 984
-27.604488 269.14368 984
-24.227556 269.96423 987
-20.766495 269.96423 987
-17.340467 270.51126 989
-13.91444 271.33185 992
-10.435847 271.33185 992
-6.9572201 271.33185 992
-3.4786267 271.33185 992
0 270.51126 989
3.4681065 270.51126 989
6.936213 270.51126 989
10.404254 270.51126 989
13.87236 270.51126 989
17.393066 271.33185 992
20.871695 271.33185 992
24.350321 271.33185 992
27.82888 271.33185 992
31.307508 271.33185 992
34.680935 270.51126 989
38.14904 270.51126 989
41.743389 271.33185 992
45.085186 270.51126 989
48.553295 270.51126 989
52.0214 270.51126 989
55.48951 270.51126 989
58.957615 270.51126 989
62.425655 270.51126 989
65.893761 270.51126 989
69.36187 270.51126 989
72.829979 270.51126 989
76.29808 270.51126 989
79.766121 270.51126 989
83.23423 270.51126 989
86.527 269.96423 987
89.988098 269.96423 987
93.449188 269.96423 987
97.10659 270.51126 989
100.5747 270.51126 989
104.0428 270.51126 989
107.51091 270.51126 989
110.75459 269.96423 987
114.21562 269.96423 987
117.67671 269.96423 987
121.1378 269.96423 987
124.22018 269.14368 984
127.67075 269.14368 984
131.12126 269.14368 984
134.98212 269.96423 987
138.44321 269.96423 987
142.19185 270.51126 989
145.65996 270.51126 989
149.12799 270.51126 989
152.28752 269.96423 987
155.27521 269.14368 984
158.72578 269.14368 984
162.17635 269.14368 984
165.62686 269.14368 984
169.07744 269.14368 984
173.054 269.96423 987
176.51509 269.96423 987
179.9762 269.96423 987
183.43721 269.96423 987
186.89832 269.96423 987
190.35941 269.96423 987
193.8205 269.96423 987
197.2816 269.96423 987
200.74261 269.96423 987
204.20372 269.96423 987
207.66481 269.96423 987
211.1259 269.96423 987
214.58701 269.96423 987
218.04802 269.96423 987
221.50912 269.96423 987
224.97021 269.96423 987
228.43129 269.96423 987
231.18756 269.14368 984
233.9227 268.32312 981
237.36275 268.32312 981
240.80281 268.32312 981
243.49594 267.50253 978
246.16805 266.68201 975
249.58698 266.68201 975
253.78448 267.50253 978
256.42502 266.68201 975
259.84402 266.68201 975
263.26303 266.68201 975
266.68198 266.68201 975
270.10098 266.68201 975
273.52002 266.68201 975
276.37094 266.13495 973
278.92032 265.31439 970
281.44855 264.49384 967
284.83954 264.49384 967
274.22134 251.6384 920
277.44748 251.6384 920
304.46988 272.97293 998
304.57504 269.96423 987
308.03613 269.96423 987
311.49722 269.96423 987
314.95831 269.96423 987
318.41937 269.96423 987
321.88043 269.96423 987
326.00076 270.51126 989
328.80261 269.96423 987
332.2637 269.96423 987
335.72479 269.96423 987
339.18585 269.96423 987
342.64691 269.96423 987
346.108 269.96423 987
351.33997 271.33185 992
355.89163 272.1524 995
358.29718 271.33185 992
361.77579 271.33185 992
365.25443 271.33185 992
368.73303 271.33185 992
371.08603 270.51126 989
373.79663 269.96423 987
377.25772 269.96423 987
379.56161 269.14368 984
383.01218 269.14368 984
386.46277 269.14368 984
391.89453 270.51126 989
396.56192 271.33185 992
400.04056 271.33185 992
402.29886 270.51126 989
404.94638 269.96423 987
407.16608 269.14368 984
410.61664 269.14368 984
414.06723 269.14368 984
417.51779 269.14368 984
400.00552 255.7412 935
403.28418 255.7412 935
412.21567 259.29694 948
415.54001 259.29694 948
418.86435 259.29694 948
423.52475 260.11749 951
426.8595 260.11749 951
430.19437 260.11749 951
431.24988 258.74991 946
434.5672 258.74991 946
437.88455 258.74991 946
442.13455 259.29694 948
450.62772 262.30566 959
453.99063 262.30566 959
458.78424 263.12622 962
463.1185 263.67328 964
467.95065 264.49384 967
472.80389 265.31439 970
476.20535 265.31439 970
479.60681 265.31439 970
483.00833 265.31439 970
486.40973 265.31439 970
489.81122 265.31439 970
493.21268 265.31439 970
496.61417 265.31439 970
498.46918 264.49384 967
501.86011 264.49384 967
505.25107 264.49384 967
508.64203 264.49384 967
510.44446 263.67328 964
513.82489 263.67328 964
517.20526 263.67328 964
522.20581 264.49384 967
525.59674 264.49384 967
542.6637 271.33185 992
546.14233 271.33185 992
546.85065 269.96423 987
550.31171 269.96423 987
-0 0 0
-0 0 0
-0 0 0
-581.92786 292.81717 1057
-578.22131 292.81717 1057
-576.14532 293.64825 1060
-574.04834 294.47934 1063
-572.46686 295.58743 1067
-568.72522 295.58743 1067
-564.98364 295.58743 1067
-826.87201 435.48587 1572
-821.3595 435.48587 1572
-815.84705 435.48587 1572
-813.94293 437.42508 1579
-808.40594 437.42508 1579
-547.61859 298.3577 1077
-541.82208 297.2496 1073
-536.55511 296.41852 1070
-532.80298 296.41852 1070
-527.5675 295.58743 1067
-521.86218 294.47934 1063
-518.13452 294.47934 1063
-514.40698 294.47934 1063
-512.60101 295.58743 1067
-508.85944 295.58743 1067
-505.11783 295.58743 1067
-502.78589 296.41852 1070
-499.03375 296.41852 1070
-496.67026 297.2496 1073
-494.74512 298.3577 1077
-490.96841 298.3577 1077
-487.19174 298.3577 1077
-484.76163 299.18878 1080
-480.97443 299.18878 1080
-477.18723 299.18878 1080
-476.46835 301.12796 1087
-473.96109 301.95905 1090
-471.86411 303.06714 1094
-469.31122 303.89825 1097
-465.46445 303.89825 1097
-463.30081 305.00635 1101
-461.10916 306.11447 1105
-458.47565 306.94553 1108
-456.23135 308.05365 1112
-453.55228 308.8847 1115
-451.2554 309.99283 1119
-448.93048 311.10092 1123
-444.99252 311.10092 1123
-0 0 0
-0 0 0
-0 0 0
-0 0 0
-0 0 0
-613.69476 505.01959 1823
-607.30206 505.01959 1823
-614.09448 516.10065 1863
-604.30042 513.33038 1853
-597.80249 513.33038 1853
-591.30469 513.33038 1853
-587.96283 516.10065 1863
-581.42987 516.10065 1863
-574.89697 516.10065 1863
-571.41486 518.87091 1873
-564.84692 518.87091 1873
-561.25958 521.64117 1883
-299.27295 281.45908 1016
-295.71021 281.45908 1016
-291.28476 280.62802 1013
-287.73254 280.62802 1013
-284.18027 280.62802 1013
-280.62802 280.62802 1013
-277.07578 280.62802 1013
-273.5235 280.62802 1013
-269.97128 280.62802 1013
-265.63 279.79691 1010
-262.08826 279.79691 1010
-258.54654 279.79691 1010
-255.00481 279.79691 1010
-250.71616 278.96585 1007
-246.44855 278.13477 1004
-242.92784 278.13477 1004
-239.40717 278.13477 1004
-235.88646 278.13477 1004
-232.36578 278.13477 1004
-228.84508 278.13477 1004
-225.32437 278.13477 1004
-221.8037 278.13477 1004
-217.63074 277.30368 1001
-214.12061 277.30368 1001
-210.61041 277.30368 1001
-207.10022 277.30368 1001
-203.59007 277.30368 1001
-200.07988 277.30368 1001
-196.56973 277.30368 1001
-192.48094 276.47263 998
-188.98128 276.47263 998
-184.92407 275.64151 995
-181.43494 275.64151 995
-177.94582 275.64151 995
-174.45668 275.64151 995
-170.96753 275.64151 995
-167.47841 275.64151 995
-163.98927 275.64151 995
-160.01622 274.81046 992
-156.53761 274.81046 992
-152.5961 273.97934 989
-149.12802 273.97934 989
-145.65991 273.97934 989
-142.19185 273.97934 989
-138.72374 273.97934 989
-135.25563 273.97934 989
-131.78755 273.97934 989
-128.31946 273.97934 989
-124.85138 273.97934 989
-121.38327 273.97934 989
-117.91516 273.97934 989
-113.86849 272.59424 984
-110.41792 272.59424 984
-106.64126 271.76315 981
-103.2012 271.76315 981
-99.761154 271.76315 981
-96.615692 272.59424 984
-92.881073 271.76315 981
-89.441055 271.76315 981
-86.000999 271.76315 981
-82.560951 271.76315 981
-79.120934 271.76315 981
-75.44944 270.93207 978
-72.019936 270.93207 978
-68.590401 270.93207 978
-64.960991 270.10098 975
-61.542011 270.10098 975
-58.301838 270.93207 978
-54.872337 270.93207 978
-51.442802 270.93207 978
-48.013268 270.93207 978
-44.583767 270.93207 978
-41.154236 270.93207 978
-37.724735 270.93207 978
-34.2952 270.93207 978
-30.865669 270.93207 978
-27.436169 270.93207 978
-24.080275 271.76315 981
-20.640255 271.76315 981
-17.2528 272.59424 984
-13.844307 273.42529 987
-10.383247 273.42529 987
-6.9221535 273.42529 987
-3.4505732 272.59424 984
0 271.76315 981
3.4400532 271.76315 981
6.8380265 270.10098 975
10.256974 270.10098 975
13.87236 273.97934 989
17.200201 271.76315 981
20.577133 270.93207 978
24.006668 270.93207 978
27.688614 273.42529 987
31.149708 273.42529 987
34.610802 273.42529 987
38.071892 273.42529 987
41.617149 273.97934 989
45.085186 273.97934 989
48.553295 273.97934 989
52.0214 273.97934 989
55.48951 273.97934 989
58.957615 273.97934 989
62.299416 273.42529 987
65.760513 273.42529 987
69.221603 273.42529 987
72.682701 273.42529 987
76.29808 273.97934 989
79.362854 272.59424 984
82.813431 272.59424 984
86.264 272.59424 984
89.714577 272.59424 984
93.165154 272.59424 984
96.910225 273.42529 987
100.37131 273.42529 987
103.51681 272.59424 984
106.96738 272.59424 984
110.08131 271.76315 981
113.17413 270.93207 978
116.60368 270.93207 978
120.0332 270.93207 978
123.46274 270.93207 978
126.89227 270.93207 978
130.7215 271.76315 981
134.16156 271.76315 981
137.60161 271.76315 981
141.47298 272.59424 984
144.92355 272.59424 984
148.37405 272.59424 984
151.36174 271.76315 981
154.8018 271.76315 981
157.75793 270.93207 978
161.18747 270.93207 978
164.61694 270.93207 978
168.04648 270.93207 978
171.47601 270.93207 978
175.44206 271.76315 981
178.88211 271.76315 981
182.3221 271.76315 981
185.76215 271.76315 981
189.20221 271.76315 981
192.64227 271.76315 981
196.08231 271.76315 981
199.52231 271.76315 981
202.96234 271.76315 981
205.77121 270.93207 978
209.20074 270.93207 978
212.63026 270.93207 978
216.05975 270.93207 978
220.16255 271.76315 981
223.60262 271.76315 981
227.04266 271.76315 981
229.77786 270.93207 978
233.20735 270.93207 978
236.63687 270.93207 978
239.33 270.10098 975
242.25107 269.54694 973
245.66307 269.54694 973
249.07501 269.54694 973
253.006 270.10098 975
255.899 269.54694 973
259.311 269.54694 973
262.72299 269.54694 973
266.13495 269.54694 973
269.54694 269.54694 973
272.11734 268.71585 970
275.51883 268.71585 970
278.05768 267.88477 967
280.57541 267.05368 964
280.12656 263.45233 951
278.69235 259.01993 935
281.9711 259.01993 935
312.70703 283.95233 1025
302.72348 271.76315 981
306.16354 271.76315 981
309.60361 271.76315 981
312.08636 270.93207 978
315.51587 270.93207 978
318.94534 270.93207 978
322.37488 270.93207 978
325.80441 270.93207 978
328.224 270.10098 975
331.64304 270.10098 975
335.06198 270.10098 975
337.78665 269.54694 973
341.19867 269.54694 973
344.61069 269.54694 973
348.02267 269.54694 973
355.40765 272.59424 984
355.57602 270.10098 975
358.99503 270.10098 975
364.64429 271.76315 981
368.08432 271.76315 981
371.52429 271.76315 981
373.81766 270.93207 978
377.24722 270.93207 978
381.84448 271.76315 981
385.28455 271.76315 981
389.91327 272.59424 984
393.36383 272.59424 984
396.81442 272.59424 984
402.29886 273.97934 989
403.71558 272.59424 984
407.16608 272.59424 984
410.61664 272.59424 984
414.06723 272.59424 984
416.24487 271.76315 981
419.68494 271.76315 981
408.89136 262.62128 948
412.21567 262.62128 948
415.54001 262.62128 948
418.86435 262.62128 948
423.52475 263.45233 951
426.8595 263.45233 951
0 0 0
442.19067 268.71585 970
444.21405 267.88477 967
447.60498 267.88477 967
450.99591 267.88477 967
454.38687 267.88477 967
456.3576 267.05368 964
459.73807 267.05368 964
463.1185 267.05368 964
467.95065 267.88477 967
471.34158 267.88477 967
476.20535 268.71585 970
478.1235 267.88477 967
481.51447 267.88477 967
484.90536 267.88477 967
488.29633 267.88477 967
491.68729 267.88477 967
495.07825 267.88477 967
498.46918 267.88477 967
501.86011 267.88477 967
505.25107 267.88477 967
502.85602 264.83749 956
510.44446 267.05368 964
513.82489 267.05368 964
517.20526 267.05368 964
522.20581 267.88477 967
525.59674 267.88477 967
524.61139 265.66855 959
527.9743 265.66855 959
531.33716 265.66855 959
543.62103 270.10098 975
-0 0 0
-0 0 0
-0 0 0
-581.92786 296.52371 1057
-578.22131 296.52371 1057
-577.77594 298.20691 1063
-574.04834 298.20691 1063
-831.60602 434.82663 1550
-826.17072 434.82663 1550
-820.73535 434.82663 1550
-815.30005 434.82663 1550
-817.17957 438.75412 1564
-815.84705 440.99835 1572
-810.33459 440.99835 1572
-804.82214 440.99835 1572
-547.61859 302.13437 1077
-538.79236 299.32907 1067
-533.04492 298.20691 1063
-529.31732 298.20691 1063
-525.58978 298.20691 1063
-521.86218 298.20691 1063
-518.13452 298.20691 1063
-514.40698 298.20691 1063
-512.60101 299.32907 1067
-508.85944 299.32907 1067
-505.11783 299.32907 1067
-502.78589 300.17065 1070
-499.03375 300.17065 1070
-496.67026 301.01227 1073
-494.74512 302.13437 1077
-490.96841 302.13437 1077
-487.19174 302.13437 1077
-483.41507 302.13437 1077
-479.63837 302.13437 1077
-477.18723 302.97598 1080
-473.40002 302.97598 1080
-473.96109 305.78131 1090
-471.86411 306.90347 1094
-469.31122 307.74506 1097
-467.16168 308.86719 1101
-463.30081 308.86719 1101
-461.10916 309.98932 1105
-458.47565 310.8309 1108
-457.46222 312.79465 1115
-455.17938 313.91678 1119
-451.2554 313.91678 1119
-448.93048 315.03891 1123
-444.99252 315.03891 1123
-443.80374 317.00266 1130
-0 0 0
-0 0 0
-0 0 0
-0 0 0
-0 0 0
-623.48883 514.21753 1833
-613.69476 511.41223 1823
-607.30206 511.41223 1823
-610.79822 519.82825 1853
-604.30042 519.82825 1853
-597.80249 519.82825 1853
-591.30469 519.82825 1853
-584.80682 519.82825 1853
-578.30896 519.82825 1853
-574.89697 522.63354 1863
-571.41486 525.4389 1873
-564.84692 525.4389 1873
-561.25958 528.24426 1883
-301.04031 286.70505 1022
-296.58337 285.86346 1019
-293.01007 285.86346 1019
-288.58469 285.02185 1016
-285.02188 285.02185 1016
-280.62802 284.18027 1013
-277.07578 284.18027 1013
-273.5235 284.18027 1013
-269.97128 284.18027 1013
-266.41901 284.18027 1013
-262.08826 283.33865 1010
-258.54654 283.33865 1010
-255.00481 283.33865 1010
-250.71616 282.49707 1007
-247.18494 282.49707 1007
-243.65372 282.49707 1007
-240.12251 282.49707 1007
-235.88646 281.65546 1004
-232.36578 281.65546 1004
-228.84508 281.65546 1004
-225.32437 281.65546 1004
-221.8037 281.65546 1004
-217.63074 280.81387 1001
-214.12061 280.81387 1001
-210.61041 280.81387 1001
-207.10022 280.81387 1001
-203.59007 280.81387 1001
-200.07988 280.81387 1001
-196.56973 280.81387 1001
-193.05954 280.81387 1001
-188.98128 279.97226 998
-185.48164 279.97226 998
-181.98196 279.97226 998
-177.94582 279.13065 995
-174.45668 279.13065 995
-170.96753 279.13065 995
-167.47841 279.13065 995
-163.98927 279.13065 995
-160.01622 278.28906 992
-156.53761 278.28906 992
-153.05899 278.28906 992
-149.58038 278.28906 992
-146.10176 278.28906 992
-142.19185 277.44745 989
-138.72374 277.44745 989
-135.25563 277.44745 989
-131.78755 277.44745 989
-128.31946 277.44745 989
-124.85138 277.44745 989
-121.38327 277.44745 989
-117.91516 277.44745 989
-113.86849 276.04477 984
-110.41792 276.04477 984
-106.64126 275.20319 981
-103.2012 275.20319 981
-99.761154 275.20319 981
-96.615692 276.04477 984
-92.881073 275.20319 981
-89.441055 275.20319 981
-86.000999 275.20319 981
-82.560951 275.20319 981
-79.120934 275.20319 981
-75.44944 274.36157 978
-72.019936 274.36157 978
-68.590401 274.36157 978
-64.960991 273.51999 975
-61.542011 273.51999 975
-58.301838 274.36157 978
-54.872337 274.36157 978
-51.442802 274.36157 978
-47.86599 273.51999 975
-44.44701 273.51999 975
-40.943836 272.95892 973
-37.531868 272.95892 973
-34.119869 272.95892 973
-30.707869 272.95892 973
-27.352007 273.51999 975
-23.932995 273.51999 975
-20.471933 272.95892 973
-17.059935 272.95892 973
-13.605854 272.11731 970
-10.204407 272.11731 970
-6.823967 272.95892 973
-3.4119997 272.95892 973
0 272.95892 973
3.4014797 272.11731 970
6.8029594 272.11731 970
10.204374 272.11731 970
13.563774 271.27573 967
16.954735 271.27573 967
20.408813 272.11731 970
23.810293 272.11731 970
27.127548 271.27573 967
30.423828 270.43411 964
33.804268 270.43411 964
38.071892 276.88638 987
41.617149 277.44745 989
45.085186 277.44745 989
48.553295 277.44745 989
52.0214 277.44745 989
55.48951 277.44745 989
58.83839 276.88638 987
62.110054 276.04477 984
65.560631 276.04477 984
68.800804 275.20319 981
72.240852 275.20319 981
75.680908 275.20319 981
79.120895 275.20319 981
82.560951 275.20319 981
86.000999 275.20319 981
89.441055 275.20319 981
92.881111 275.20319 981
96.615654 276.04477 984
100.06623 276.04477 984
103.2012 275.20319 981
106.64126 275.20319 981
109.74467 274.36157 978
113.17413 274.36157 978
116.60368 274.36157 978
120.0332 274.36157 978
123.46274 274.36157 978
126.89227 274.36157 978
130.32173 274.36157 978
133.75128 274.36157 978
137.1808 274.36157 978
140.61034 274.36157 978
144.03987 274.36157 978
147.46935 274.36157 978
150.89888 274.36157 978
154.3284 274.36157 978
157.27402 273.51999 975
160.3634 272.95892 973
163.77534 272.95892 973
167.18735 272.95892 973
170.95001 273.51999 975
174.90553 274.36157 978
177.78804 273.51999 975
181.20697 273.51999 975
184.24728 272.95892 973
187.65927 272.95892 973
191.46402 273.51999 975
195.48267 274.36157 978
198.30197 273.51999 975
201.72099 273.51999 975
204.71921 272.95892 973
208.13121 272.95892 973
211.97804 273.51999 975
215.39697 273.51999 975
218.81599 273.51999 975
222.235 273.51999 975
225.65402 273.51999 975
228.60313 272.95892 973
232.01508 272.95892 973
235.42708 272.95892 973
238.10268 272.11731 970
241.50417 272.11731 970
244.14819 271.27573 967
247.53908 271.27573 967
250.15157 270.43411 964
253.53201 270.43411 964
257.71198 271.27573 967
261.10294 271.27573 967
264.4938 271.27573 967
267.8848 271.27573 967
271.27576 271.27573 967
274.66669 271.27573 967
277.19504 270.43411 964
279.12012 269.03146 959
278.65375 265.38452 946
279.58655 263.14026 938
282.87579 263.14026 938
314.53754 289.22986 1031
301.79776 274.36157 978
305.22726 274.36157 978
307.71002 273.51999 975
310.49081 272.95892 973
312.93497 272.11731 970
315.35803 271.27573 967
318.74899 271.27573 967
322.13995 271.27573 967
326.5408 272.11731 970
329.94232 272.11731 970
333.34372 272.11731 970
336.74521 272.11731 970
340.14667 272.11731 970
343.54816 272.11731 970
345.87659 271.27573 967
349.26752 271.27573 967
353.75253 272.11731 970
357.15402 272.11731 970
361.67062 272.95892 973
365.83304 273.51999 975
369.25198 273.51999 975
371.90652 272.95892 973
375.31854 272.95892 973
379.509 273.51999 975
384.10626 274.36157 978
387.53577 274.36157 978
392.16455 275.20319 981
395.60461 275.20319 981
400.26498 276.04477 984
402.48474 275.20319 981
405.92468 275.20319 981
409.36475 275.20319 981
411.54242 274.36157 978
414.97195 274.36157 978
417.11804 273.51999 975
412.34189 268.18985 956
413.52014 266.78717 951
415.54001 265.94559 948
418.86435 265.94559 948
430.65027 271.27573 967
434.04117 271.27573 967
437.43213 271.27573 967
442.19067 272.11731 970
445.59216 272.11731 970
447.60498 271.27573 967
450.99591 271.27573 967
454.38687 271.27573 967
457.7778 271.27573 967
461.16876 271.27573 967
464.55972 271.27573 967
467.95065 271.27573 967
471.34158 271.27573 967
476.20535 272.11731 970
478.1235 271.27573 967
481.51447 271.27573 967
483.401 270.43411 964
486.78143 270.43411 964
490.1619 270.43411 964
495.07825 271.27573 967
498.46918 271.27573 967
503.41705 272.11731 970
506.81854 272.11731 970
502.85602 268.18985 956
506.2084 268.18985 956
509.56082 268.18985 956
516.13226 269.87305 962
522.20581 271.27573 967
525.59674 271.27573 967
528.98773 271.27573 967
527.9743 269.03146 959
531.33716 269.03146 959
537.48785 270.43411 964
-0 0 0
-0 0 0
-0 0 0
-583.57947 301.08237 1060
-579.86243 301.08237 1060
-577.77594 301.93451 1063
-574.04834 301.93451 1063
-831.60602 440.26196 1550
-822.43958 438.27368 1543
-817.02887 438.27368 1543
-815.30005 440.26196 1550
-813.52209 442.25027 1557
-811.69519 444.23853 1564
-810.33459 446.51086 1572
-804.82214 446.51086 1572
-547.61859 305.91107 1077
-536.77246 301.93451 1063
-531.54053 301.08237 1060
-527.82349 301.08237 1060
-524.10645 301.08237 1060
-520.38934 301.08237 1060
-516.6723 301.08237 1060
-514.40698 301.93451 1063
-512.60101 303.07068 1067
-508.85944 303.07068 1067
-505.11783 303.07068 1067
-502.78589 303.92276 1070
-499.03375 303.92276 1070
-496.67026 304.7749 1073
-494.74512 305.91107 1077
-492.33603 306.76318 1080
-487.19174 305.91107 1077
-483.41507 305.91107 1077
-479.63837 305.91107 1077
-477.18723 306.76318 1080
-473.40002 306.76318 1080
-473.96109 309.60358 1090
-471.86411 310.73975 1094
-471.02249 312.728 1101
-467.16168 312.728 1101
-464.98401 313.86417 1105
-462.36099 314.71631 1108
-460.1308 315.85248 1112
-457.46222 316.70459 1115
-455.17938 317.84073 1119
-452.86847 318.9769 1123
-448.93048 318.9769 1123
-446.18127 319.82901 1126
-443.80374 320.96518 1130
-439.84122 320.96518 1130
-0 0 0
-0 0 0
-0 0 0
-0 0 0
-0 0 0
-632.87268 517.80487 1823
-626.48004 517.80487 1823
-623.48883 520.64526 1833
-617.06116 520.64526 1833
-613.96478 523.48566 1843
-610.79822 526.32605 1853
-604.30042 526.32605 1853
-597.80249 526.32605 1853
-591.30469 526.32605 1853
-584.80682 526.32605 1853
-578.30896 526.32605 1853
-574.89697 529.1665 1863
-571.41486 532.0069 1873
-567.86261 534.84729 1883
-564.53827 537.97174 1894
-301.04031 290.28888 1022
-296.58337 289.43674 1019
-293.01007 289.43674 1019
-288.58469 288.58459 1016
-285.02188 288.58459 1016
-281.45908 288.58459 1016
-277.89633 288.58459 1016
-274.33356 288.58459 1016
-269.97128 287.73251 1013
-266.41901 287.73251 1013
-262.86676 287.73251 1013
-259.31451 287.73251 1013
-255.76224 287.73251 1013
-251.46309 286.88037 1010
-247.92134 286.88037 1010
-244.37959 286.88037 1010
-240.12251 286.02826 1007
-236.59129 286.02826 1007
-233.06009 286.02826 1007
-229.52887 286.02826 1007
-225.99765 286.02826 1007
-222.46645 286.02826 1007
-218.28299 285.17615 1004
-214.12061 284.32401 1001
-210.61041 284.32401 1001
-207.10022 284.32401 1001
-203.59007 284.32401 1001
-200.07988 284.32401 1001
-196.56973 284.32401 1001
-193.05954 284.32401 1001
-189.54935 284.32401 1001
-185.48164 283.47189 998
-181.98196 283.47189 998
-178.48233 283.47189 998
-174.98267 283.47189 998
-171.483 283.47189 998
-167.98338 283.47189 998
-164.4837 283.47189 998
-160.50015 282.61978 995
-157.011 282.61978 995
-153.05899 281.76767 992
-149.58038 281.76767 992
-146.10176 281.76767 992
-142.19185 280.91553 989
-138.72374 280.91553 989
-135.25563 280.91553 989
-131.78755 280.91553 989
-128.31946 280.91553 989
-124.85138 280.91553 989
-121.38327 280.91553 989
-117.91516 280.91553 989
-114.21564 280.34747 987
-110.41792 279.49533 984
-106.96738 279.49533 984
-103.2012 278.64322 981
-99.761154 278.64322 981
-96.615692 279.49533 984
-93.165115 279.49533 984
-89.441055 278.64322 981
-86.000999 278.64322 981
-82.560951 278.64322 981
-79.120934 278.64322 981
-75.44944 277.79111 978
-72.019936 277.79111 978
-68.590401 277.79111 978
-65.160866 277.79111 978
-61.731369 277.79111 978
-58.301838 277.79111 978
-54.872337 277.79111 978
-51.442802 277.79111 978
-47.86599 276.93896 975
-44.44701 276.93896 975
-40.943836 276.37091 973
-37.531868 276.37091 973
-34.014668 275.51877 970
-30.613188 275.51877 970
-27.295902 276.37091 973
-23.810261 275.51877 970
-20.408813 275.51877 970
-17.007334 275.51877 970
-13.605854 275.51877 970
-10.204407 275.51877 970
-6.802927 275.51877 970
-3.4014797 275.51877 970
0 275.51877 970
3.4014797 275.51877 970
6.8029594 275.51877 970
10.172815 274.66666 967
13.563774 274.66666 967
16.954735 274.66666 967
20.345694 274.66666 967
23.736654 274.66666 967
27.043388 273.81454 964
30.423828 273.81454 964
33.804268 273.81454 964
37.184708 273.81454 964
40.565147 273.81454 964
44.082283 274.66666 967
47.473244 274.66666 967
50.443401 272.39435 959
55.377293 280.34747 987
58.83839 280.34747 987
62.110054 279.49533 984
65.560631 279.49533 984
67.257866 272.39435 959
70.620773 272.39435 959
73.983681 272.39435 959
79.120895 278.64322 981
82.560951 278.64322 981
85.738007 277.79111 978
88.89402 276.93896 975
92.313026 276.93896 975
95.731979 276.93896 975
99.45607 277.79111 978
102.8856 277.79111 978
106.31513 277.79111 978
109.40803 276.93896 975
112.82698 276.93896 975
116.24599 276.93896 975
119.41954 276.37091 973
122.83154 276.37091 973
126.24354 276.37091 973
129.65547 276.37091 973
133.06747 276.37091 973
136.76001 276.93896 975
140.17902 276.93896 975
143.59804 276.93896 975
147.01697 276.93896 975
150.43599 276.93896 975
153.85501 276.93896 975
156.46748 275.51877 970
159.86897 275.51877 970
163.27037 275.51877 970
166.67186 275.51877 970
170.07333 275.51877 970
173.47482 275.51877 970
176.32927 274.66666 967
179.72015 274.66666 967
183.67918 275.51877 970
187.08067 275.51877 970
190.48216 275.51877 970
194.48326 276.37091 973
197.28503 275.51877 970
200.68652 275.51877 970
204.08801 275.51877 970
207.48949 275.51877 970
210.89098 275.51877 970
214.29237 275.51877 970
217.69386 275.51877 970
221.09534 275.51877 970
224.49683 275.51877 970
227.89832 275.51877 970
231.29971 275.51877 970
234.70119 275.51877 970
238.10268 275.51877 970
240.01031 273.81454 964
242.8858 273.24646 962
246.25916 273.24646 962
248.8541 272.39435 959
252.21701 272.39435 959
255.57991 272.39435 959
259.75287 273.24646 962
263.12622 273.24646 962
267.05371 273.81454 964
270.43414 273.81454 964
273.81458 273.81454 964
275.75729 272.39435 959
277.66486 270.97415 954
278.65375 268.70181 946
280.18268 266.99759 940
283.47897 266.99759 940
287.69046 267.8497 943
299.32904 275.51877 970
302.73053 275.51877 970
306.13202 275.51877 970
308.57617 274.66666 967
311.96713 274.66666 967
314.37967 273.81454 964
317.7601 273.81454 964
321.14053 273.81454 964
325.53088 274.66666 967
328.92184 274.66666 967
332.31277 274.66666 967
335.70374 274.66666 967
339.09467 274.66666 967
342.48563 274.66666 967
345.87659 274.66666 967
349.26752 274.66666 967
352.65845 274.66666 967
356.04941 274.66666 967
360.55548 275.51877 970
363.95697 275.51877 970
367.35837 275.51877 970
370.75989 275.51877 970
375.31854 276.37091 973
379.509 276.93896 975
384.10626 277.79111 978
387.53577 277.79111 978
390.96527 277.79111 978
394.39481 277.79111 978
399.04468 278.64322 981
402.48474 278.64322 981
404.68335 277.79111 978
406.86102 276.93896 975
410.28003 276.93896 975
412.85043 276.37091 973
414.97897 275.51877 970
418.38037 275.51877 970
415.69427 271.54221 956
419.04669 271.54221 956
427.25931 274.66666 967
430.65027 274.66666 967
434.04117 274.66666 967
437.43213 274.66666 967
442.19067 275.51877 970
445.59216 275.51877 970
443.90198 272.39435 959
445.86563 271.54221 956
449.21802 271.54221 956
452.5704 271.54221 956
455.92282 271.54221 956
459.27521 271.54221 956
467.95065 274.66666 967
471.34158 274.66666 967
474.73254 274.66666 967
478.1235 274.66666 967
479.02472 273.24646 962
482.3981 273.24646 962
485.77155 273.24646 962
489.14496 273.24646 962
493.54233 273.81454 964
496.92276 273.81454 964
497.70819 272.39435 959
499.50363 271.54221 956
501.80402 270.97415 954
505.14938 270.97415 954
509.56082 271.54221 956
514.52264 272.39435 959
517.88556 272.39435 959
522.87909 273.24646 962
527.34662 273.81454 964
527.9743 272.39435 959
531.33716 272.39435 959
536.37274 273.24646 962
-0 0 0
-0 0 0
-0 0 0
-853.34735 445.69733 1550
-847.91205 445.69733 1550
-842.47668 445.69733 1550
-837.04138 445.69733 1550
-835.36163 447.71014 1557
-822.43958 443.68448 1543
-817.02887 443.68448 1543
-815.30005 445.69733 1550
-813.52209 447.71014 1557
-811.69519 449.72296 1564
-810.33459 452.02335 1572
-804.82214 452.02335 1572
-799.30963 452.02335 1572
-536.77246 305.66208 1063
-530.03619 303.9368 1057
-526.32965 303.9368 1057
-522.62311 303.9368 1057
-520.38934 304.79944 1060
-516.6723 304.79944 1060
-514.40698 305.66208 1063
-512.60101 306.81226 1067
-508.85944 306.81226 1067
-505.11783 306.81226 1067
-504.19553 308.53754 1073
-500.43292 308.53754 1073
-498.52176 309.68774 1077
-496.12323 310.55038 1080
-492.33603 310.55038 1080
-488.54883 310.55038 1080
-483.41507 309.68774 1077
-479.63837 309.68774 1077
-477.18723 310.55038 1080
-475.15335 311.70056 1084
-473.96109 313.42584 1090
-471.86411 314.57602 1094
-471.02249 316.58884 1101
-468.85889 317.73904 1105
-466.24643 318.60168 1108
-464.03018 319.75186 1112
-461.37216 320.6145 1115
-457.46222 320.6145 1115
-455.17938 321.76471 1119
-452.86847 322.91489 1123
-451.72882 324.9277 1130
-447.7663 324.9277 1130
-443.80374 324.9277 1130
-439.84122 324.9277 1130
-0 0 0
-0 0 0
-0 0 0
-0 0 0
-0 0 0
-0 0 0
-635.75867 521.32202 1813
-629.40106 521.32202 1813
-626.48004 524.19751 1823
-623.48883 527.073 1833
-620.42755 529.94843 1843
-613.96478 529.94843 1843
-610.79822 532.82391 1853
-604.30042 532.82391 1853
-597.80249 532.82391 1853
-591.30469 532.82391 1853
-584.80682 532.82391 1853
-578.30896 532.82391 1853
-574.89697 535.6994 1863
-574.46564 541.45032 1883
-574.19568 547.48877 1904
-570.79767 550.65186 1915
-301.92401 294.73532 1025
-298.32968 294.73532 1025
-293.87268 293.87268 1022
-290.28891 293.87268 1022
-285.86346 293.01001 1019
-282.29016 293.01001 1019
-277.89633 292.1474 1016
-274.33356 292.1474 1016
-270.77081 292.1474 1016
-267.20801 292.1474 1016
-263.6452 292.1474 1016
-259.31451 291.28476 1013
-255.76224 291.28476 1013
-252.21001 291.28476 1013
-248.65775 291.28476 1013
-245.10548 291.28476 1013
-241.55325 291.28476 1013
-237.29614 290.42212 1010
-233.75443 290.42212 1010
-230.21268 290.42212 1010
-226.67093 290.42212 1010
-223.12921 290.42212 1010
-218.93523 289.55948 1007
-214.76231 288.69681 1004
-211.24161 288.69681 1004
-207.7209 288.69681 1004
-204.20023 288.69681 1004
-200.67952 288.69681 1004
-196.56973 287.8342 1001
-193.05954 287.8342 1001
-189.54935 287.8342 1001
-185.48164 286.97156 998
-181.98196 286.97156 998
-178.48233 286.97156 998
