# .PCD v0.7 - Point Cloud Data file format
VERSION 0.7
FIELDS x y z
SIZE 4 4 4
TYPE F F F
COUNT 1 1 1
WIDTH 1571
HEIGHT 1
VIEWPOINT 0 0 0 0 0.5 0 0
POINTS 1571
DATA ascii
-143.93333 396.84998 494.63333
143.93333 -396.84998 495.96667
-71.96666 -396.84998 495.96667
71.96666 -396.84998 494.63333
-143.93333 -396.84998 495.63333
143.93333 264.56665 496.30002
-71.96666 264.56665 496.30002
71.96666 -264.56665 496.30002
-143.93333 132.28333 496.30002
143.93333 264.56665 494.30002
143.93333 -132.28333 494.30002
71.96666 -264.56665 494.30002
-143.93333 -264.56665 494.30002
215.90001 264.56665 229.26668
215.90001 -132.28333 229.26668
215.90001 132.28333 227.93332
215.90001 -264.56665 228.93333
-215.90001 264.56665 229.26668
-215.90001 264.56665 228.26666
-215.90001 132.28333 227.93332
-215.90001 -264.56665 227.93332
143.93333 396.84998 229.26668
143.93333 396.84998 228.26666
71.96666 396.84998 227.93332
-143.93333 396.84998 227.93332
143.93333 -396.84998 229.26668
-71.96666 -396.84998 229.26668
71.96666 -396.84998 227.93332
-143.93333 -396.84998 228.93333
143.93333 264.56665 229.59999
-71.96666 264.56665 229.59999
71.96666 -264.56665 229.59999
-143.93333 132.28333 229.59999
143.93333 264.56665 227.59999
143.93333 -132.28333 227.59999
71.96666 -264.56665 227.59999
-143.93333 -264.56665 227.59999
215.90001 264.56665 -227.93332
215.90001 -132.28333 -227.93332
215.90001 132.28333 -229.26668
215.90001 -264.56665 -228.26666
-215.90001 264.56665 -227.93332
-215.90001 264.56665 -228.93333
-215.90001 132.28333 -229.26668
-215.90001 -264.56665 -229.26668
143.93333 396.84998 -227.93332
143.93333 396.84998 -228.93333
71.96666 396.84998 -229.26668
-143.93333 396.84998 -229.26668
143.93333 -396.84998 -227.93332
-71.96666 -396.84998 -227.93332
71.96666 -396.84998 -229.26668
-143.93333 -396.84998 -228.26666
143.93333 264.56665 -227.59999
-71.96666 264.56665 -227.59999
71.96666 -264.56665 -227.59999
-143.93333 132.28333 -227.59999
143.93333 264.56665 -229.59999
143.93333 -132.28333 -229.59999
71.96666 -264.56665 -229.59999
-143.93333 -264.56665 -229.59999
215.90001 264.56665 -494.63333
215.90001 -132.28333 -494.63333
215.90001 132.28333 -495.96667
215.90001 -264.56665 -494.96667
-215.90001 264.56665 -494.63333
-215.90001 264.56665 -495.63333
-215.90001 132.28333 -495.96667
-215.90001 -264.56665 -495.96667
143.93333 396.84998 -494.63333
143.93333 396.84998 -495.63333
71.96666 396.84998 -495.96667
-143.93333 396.84998 -495.96667
143.93333 -396.84998 -494.63333
-71.96666 -396.84998 -494.63333
71.96666 -396.84998 -495.96667
-143.93333 -396.84998 -494.96667
143.93333 264.56665 -494.30002
-71.96666 264.56665 -494.30002
71.96666 -264.56665 -494.30002
-143.93333 132.28333 -494.30002
143.93333 264.56665 -496.30002
143.93333 -132.28333 -496.30002
71.96666 -264.56665 -496.30002
-143.93333 -264.56665 -496.30002
216.90001 264.56665 330.19998
216.90001 -132.28333 330.19998
216.90001 132.28333 -330.19998
216.90001 -264.56665 165.10001
214.90001 264.56665 330.19998
214.90001 264.56665 -165.10001
214.90001 132.28333 -330.19998
214.90001 -264.56665 -330.19998
216.56667 396.84998 330.19998
216.56667 396.84998 -165.10001
216.23334 396.84998 -330.19998
215.23334 396.84998 -330.19998
216.56667 -396.84998 330.19998
215.56667 -396.84998 330.19998
216.23334 -396.84998 -330.19998
215.23334 -396.84998 165.10001
216.56667 264.56665 495.29999
215.56667 264.56665 495.29999
216.23334 -264.56665 495.29999
215.23334 132.28333 495.29999
216.56667 264.56665 -495.29999
216.56667 -132.28333 -495.29999
216.23334 -264.56665 -495.29999
215.23334 -264.56665 -495.29999
215.90001 -396.68335 82.549995
215.90001 -397.51666 -82.549995
-215.90001 -396.68335 82.549995
-215.90001 -397.51666 -82.549995
35.983334 -395.85001 82.549995
-143.93333 -395.85001 -82.549995
35.983334 -397.85001 82.549995
-143.93333 -397.85001 -82.549995
35.983334 -396.68335 495.29999
-143.93333 -397.01663 495.29999
35.983334 -396.68335 -495.29999
-143.93333 -397.01663 -495.29999
215.90001 -149.03334 82.549995
215.90001 -149.86667 -82.549995
-215.90001 -149.03334 82.549995
-215.90001 -149.86667 -82.549995
35.983334 -148.20001 82.549995
-143.93333 -148.20001 -82.549995
35.983334 -150.2 82.549995
-143.93333 -150.2 -82.549995
35.983334 -149.03334 495.29999
-143.93333 -149.36667 495.29999
35.983334 -149.03334 -495.29999
-143.93333 -149.36667 -495.29999
215.90001 149.36667 82.549995
215.90001 148.53334 -82.549995
-215.90001 149.36667 82.549995
-215.90001 148.53334 -82.549995
35.983334 150.2 82.549995
-143.93333 150.2 -82.549995
35.983334 148.20001 82.549995
-143.93333 148.20001 -82.549995
35.983334 149.36667 495.29999
-143.93333 149.03334 495.29999
35.983334 149.36667 -495.29999
-143.93333 149.03334 -495.29999
215.90001 397.01663 82.549995
215.90001 396.18332 -82.549995
-215.90001 397.01663 82.549995
-215.90001 396.18332 -82.549995
35.983334 397.85001 82.549995
-143.93333 397.85001 -82.549995
35.983334 395.85001 82.549995
-143.93333 395.85001 -82.549995
35.983334 397.01663 495.29999
-143.93333 396.68335 495.29999
35.983334 397.01663 -495.29999
-143.93333 396.68335 -495.29999
215.90001 66.141663 0.16666669
215.90001 -264.56665 -0.16666669
-215.90001 66.141663 0.16666669
-215.90001 -264.56665 -0.16666669
35.983334 396.84998 0.16666669
-143.93333 396.84998 -0.16666669
35.983334 -396.84998 0.16666669
-143.93333 -396.84998 -0.16666669
35.983334 66.141663 1
-143.93333 -66.141663 1
35.983334 66.141663 -1
-143.93333 -66.141663 -1
215.90001 66.141663 495.46667
215.90001 -264.56665 495.13333
-215.90001 66.141663 495.46664
-215.90001 -264.56665 495.13333
35.983334 396.84998 495.46664
-143.93333 396.84998 495.13333
35.983334 -396.84998 495.46667
-143.93333 -396.84998 495.13333
35.983334 66.141663 496.30002
-143.93333 -66.141663 496.30002
35.983334 66.141663 494.30002
-143.93333 -66.141663 494.30002
215.90001 66.141663 228.76666
215.90001 -264.56665 228.43332
-215.90001 66.141663 228.76666
-215.90001 -264.56665 228.43332
35.983334 396.84998 228.76666
-143.93333 396.84998 228.43332
35.983334 -396.84998 228.76666
-143.93333 -396.84998 228.43332
35.983334 66.141663 229.59999
-143.93333 -66.141663 229.59999
35.983334 66.141663 227.59999
-143.93333 -66.141663 227.59999
215.90001 66.141663 -228.43332
215.90001 -264.56665 -228.76666
-215.90001 66.141663 -228.43332
-215.90001 -264.56665 -228.76666
35.983334 396.84998 -228.43332
-143.93333 396.84998 -228.76666
35.983334 -396.84998 -228.43332
-143.93333 -396.84998 -228.76666
35.983334 66.141663 -227.59999
-143.93333 -66.141663 -227.59999
35.983334 66.141663 -229.59999
-143.93333 -66.141663 -229.59999
215.90001 66.141663 -495.13333
215.90001 -264.56665 -495.46664
-215.90001 66.141663 -495.13333
-215.90001 -264.56665 -495.46667
35.983334 396.84998 -495.13333
-143.93333 396.84998 -495.46667
35.983334 -396.84998 -495.13333
-143.93333 -396.84998 -495.46664
35.983334 66.141663 -494.30002
-143.93333 -66.141663 -494.30002
35.983334 66.141663 -496.30002
-143.93333 -66.141663 -496.30002
216.90001 66.141663 82.549995
216.90001 -264.56665 -82.549995
214.90001 66.141663 82.549995
214.90001 -264.56665 -82.549995
216.06667 396.84998 82.549995
215.23334 396.84998 -82.549995
216.06667 -396.84998 82.549995
215.23334 -396.84998 -82.549995
216.06667 66.141663 495.29999
215.23334 -66.141663 495.29999
216.06667 66.141663 -495.29999
215.23334 -66.141663 -495.29999
215.90001 -396.18332 82.549995
215.90001 -396.68335 330.19998
215.90001 -397.01663 -330.19998
215.90001 -397.01663 -82.549995
-215.90001 -396.68335 330.19998
-215.90001 -396.18335 82.549995
-215.90001 -397.01663 -82.549995
-215.90001 -397.01663 -330.19998
35.983334 -395.85001 330.19998
143.93333 -395.85001 82.549995
-35.983334 -395.85001 -82.549995
-35.983334 -395.85001 -330.19998
143.93333 -397.85001 82.549995
35.983334 -397.85001 330.19998
-35.983334 -397.85001 -330.19998
-35.983334 -397.85001 -82.549995
143.93333 -396.68335 495.29999
35.983334 -396.18335 495.29999
-35.983334 -397.51666 495.29999
-35.983334 -397.01663 495.29999
35.983334 -396.18332 -495.29999
143.93333 -396.68335 -495.29999
-35.983334 -397.01663 -495.29999
-35.983334 -397.51666 -495.29999
215.90001 -148.53334 82.549995
215.90001 -149.03334 330.19998
215.90001 -149.36667 -330.19998
215.90001 -149.36667 -82.549995
-215.90001 -149.03334 330.19998
-215.90001 -148.53334 82.549995
-215.90001 -149.36667 -82.549995
-215.90001 -149.36667 -330.19998
35.983334 -148.20001 330.19998
143.93333 -148.20001 82.549995
-35.983334 -148.20001 -82.549995
-35.983334 -148.20001 -330.19998
143.93333 -150.2 82.549995
35.983334 -150.2 330.19998
-35.983334 -150.2 -330.19998
-35.983334 -150.2 -82.549995
143.93333 -149.03334 495.29999
35.983334 -148.53334 495.29999
-35.983334 -149.86667 495.29999
-35.983334 -149.36667 495.29999
35.983334 -148.53334 -495.29999
143.93333 -149.03334 -495.29999
-35.983334 -149.36667 -495.29999
-35.983334 -149.86667 -495.29999
215.90001 149.86667 82.549995
215.90001 149.36667 330.19998
215.90001 149.03334 -330.19998
215.90001 149.03334 -82.549995
-215.90001 149.36667 330.19998
-215.90001 149.86667 82.549995
-215.90001 149.03334 -82.549995
-215.90001 149.03334 -330.19998
35.983334 150.2 330.19998
143.93333 150.2 82.549995
-35.983334 150.2 -82.549995
-35.983334 150.2 -330.19998
143.93333 148.20001 82.549995
35.983334 148.20001 330.19998
-35.983334 148.20001 -330.19998
-35.983334 148.20001 -82.549995
143.93333 149.36667 495.29999
35.983334 149.86667 495.29999
-35.983334 148.53334 495.29999
-35.983334 149.03334 495.29999
35.983334 149.86667 -495.29999
143.93333 149.36667 -495.29999
-35.983334 149.03334 -495.29999
-35.983334 148.53334 -495.29999
215.90001 397.51666 82.549995
215.90001 397.01663 330.19998
215.90001 396.68335 -330.19998
215.90001 396.68335 -82.549995
-215.90001 397.01663 330.19998
-215.90001 397.51666 82.549995
-215.90001 396.68335 -82.549995
-215.90001 396.68335 -330.19998
35.983334 397.85001 330.19998
143.93333 397.85001 82.549995
-35.983334 397.85001 -82.549995
-35.983334 397.85001 -330.19998
143.93333 395.85001 82.549995
35.983334 395.85001 330.19998
-35.983334 395.85001 -330.19998
-35.983334 395.85001 -82.549995
143.93333 397.01663 495.29999
35.983334 397.51666 495.29999
-35.983334 396.18332 495.29999
-35.983334 396.68335 495.29999
35.983334 397.51666 -495.29999
143.93333 397.01663 -495.29999
-35.983334 396.68335 -495.29999
-35.983334 396.18335 -495.29999
215.90001 264.56665 0.16666669
215.90001 66.141663 0.66666675
215.90001 -66.141663 -0.66666675
215.90001 -66.141663 -0.16666669
-215.90001 66.141663 0.66666675
-215.90001 264.56665 0.16666669
-215.90001 -66.141663 -0.16666669
-215.90001 -66.141663 -0.66666675
35.983334 396.84998 0.66666675
143.93333 396.84998 0.16666669
-35.983334 396.84998 -0.16666669
-35.983334 396.84998 -0.66666675
143.93333 -396.84998 0.16666669
35.983334 -396.84998 0.66666675
-35.983334 -396.84998 -0.66666675
-35.983334 -396.84998 -0.16666669
143.93333 66.141663 1
35.983334 264.56665 1
-35.983334 -264.56665 1
-35.983334 -66.141663 1
35.983334 264.56665 -1
143.93333 66.141663 -1
-35.983334 -66.141663 -1
-35.983334 -264.56665 -1
215.90001 264.56665 495.46667
215.90001 66.141663 495.96667
215.90001 -66.141663 494.63333
215.90001 -66.141663 495.13333
-215.90001 66.141663 495.96667
-215.90001 264.56665 495.46664
-215.90001 -66.141663 495.13333
-215.90001 -66.141663 494.63333
35.983334 396.84998 495.96667
143.93333 396.84998 495.46664
-35.983334 396.84998 495.13333
-35.983334 396.84998 494.63333
143.93333 -396.84998 495.46667
35.983334 -396.84998 495.96667
-35.983334 -396.84998 494.63333
-35.983334 -396.84998 495.13333
143.93333 66.141663 496.30002
35.983334 264.56665 496.30002
-35.983334 -264.56665 496.30002
-35.983334 -66.141663 496.30002
35.983334 264.56665 494.30002
143.93333 66.141663 494.30002
-35.983334 -66.141663 494.30002
-35.983334 -264.56665 494.30002
215.90001 264.56665 228.76666
215.90001 66.141663 229.26668
215.90001 -66.141663 227.93332
215.90001 -66.141663 228.43332
-215.90001 66.141663 229.26668
-215.90001 264.56665 228.76666
-215.90001 -66.141663 228.43332
-215.90001 -66.141663 227.93332
35.983334 396.84998 229.26668
143.93333 396.84998 228.76666
-35.983334 396.84998 228.43332
-35.983334 396.84998 227.93332
143.93333 -396.84998 228.76666
35.983334 -396.84998 229.26668
-35.983334 -396.84998 227.93332
-35.983334 -396.84998 228.43332
143.93333 66.141663 229.59999
35.983334 264.56665 229.59999
-35.983334 -264.56665 229.59999
-35.983334 -66.141663 229.59999
35.983334 264.56665 227.59999
143.93333 66.141663 227.59999
-35.983334 -66.141663 227.59999
-35.983334 -264.56665 227.59999
215.90001 264.56665 -228.43332
215.90001 66.141663 -227.93332
215.90001 -66.141663 -229.26668
215.90001 -66.141663 -228.76666
-215.90001 66.141663 -227.93332
-215.90001 264.56665 -228.43332
-215.90001 -66.141663 -228.76666
-215.90001 -66.141663 -229.26668
35.983334 396.84998 -227.93332
143.93333 396.84998 -228.43332
-35.983334 396.84998 -228.76666
-35.983334 396.84998 -229.26668
143.93333 -396.84998 -228.43332
35.983334 -396.84998 -227.93332
-35.983334 -396.84998 -229.26668
-35.983334 -396.84998 -228.76666
143.93333 66.141663 -227.59999
35.983334 264.56665 -227.59999
-35.983334 -264.56665 -227.59999
-35.983334 -66.141663 -227.59999
35.983334 264.56665 -229.59999
143.93333 66.141663 -229.59999
-35.983334 -66.141663 -229.59999
-35.983334 -264.56665 -229.59999
215.90001 264.56665 -495.13333
215.90001 66.141663 -494.63333
215.90001 -66.141663 -495.96667
215.90001 -66.141663 -495.46664
-215.90001 66.141663 -494.63333
-215.90001 264.56665 -495.13333
-215.90001 -66.141663 -495.46667
-215.90001 -66.141663 -495.96667
35.983334 396.84998 -494.63333
143.93333 396.84998 -495.13333
-35.983334 396.84998 -495.46667
-35.983334 396.84998 -495.96667
143.93333 -396.84998 -495.13333
35.983334 -396.84998 -494.63333
-35.983334 -396.84998 -495.96667
-35.983334 -396.84998 -495.46664
143.93333 66.141663 -494.30002
35.983334 264.56665 -494.30002
-35.983334 -264.56665 -494.30002
-35.983334 -66.141663 -494.30002
35.983334 264.56665 -496.30002
143.93333 66.141663 -496.30002
-35.983334 -66.141663 -496.30002
-35.983334 -264.56665 -496.30002
216.90001 264.56665 82.549995
216.90001 66.141663 330.19998
216.90001 -66.141663 -330.19998
216.90001 -66.141663 -82.549995
214.90001 66.141663 330.19998
214.90001 264.56665 82.549995
214.90001 -66.141663 -82.549995
214.90001 -66.141663 -330.19998
216.06667 396.84998 330.19998
216.56667 396.84998 82.549995
215.73335 396.84998 -82.549995
215.73335 396.84998 -330.19998
216.56667 -396.84998 82.549995
216.06667 -396.84998 330.19998
215.73335 -396.84998 -330.19998
215.73335 -396.84998 -82.549995
216.56667 66.141663 495.29999
216.06667 264.56665 495.29999
215.73335 -264.56665 495.29999
215.73335 -66.141663 495.29999
216.06667 264.56665 -495.29999
216.56667 66.141663 -495.29999
215.73335 -66.141663 -495.29999
215.73335 -264.56665 -495.29999
215.90001 -397.35001 247.64999
215.90001 -396.35001 -247.64999
215.90001 -397.85001 247.64999
215.90001 -397.85001 -247.64999
-215.90001 -396.35001 -247.64999
-215.90001 -397.35001 247.64999
-215.90001 -397.85001 -247.64999
-215.90001 -397.85001 247.64999
107.95 -395.85001 -247.64999
-107.95 -395.85001 247.64999
-215.90001 -395.85001 -247.64999
-215.90001 -395.85001 247.64999
-107.95 -397.85001 247.64999
107.95 -397.85001 -247.64999
-107.95 -396.35001 495.29999
107.95 -397.35001 495.29999
-215.90001 -396.35001 495.29999
-215.90001 -397.35001 495.29999
107.95 -397.35001 -495.29999
-107.95 -396.35001 -495.29999
-215.90001 -397.35001 -495.29999
-215.90001 -396.35001 -495.29999
215.90001 -149.69998 247.64999
215.90001 -148.7 -247.64999
215.90001 -150.2 247.64999
215.90001 -150.2 -247.64999
-215.90001 -148.7 -247.64999
-215.90001 -149.69998 247.64999
-215.90001 -150.2 -247.64999
-215.90001 -150.2 247.64999
107.95 -148.20001 -247.64999
-107.95 -148.20001 247.64999
-215.90001 -148.20001 -247.64999
-215.90001 -148.20001 247.64999
-107.95 -150.2 247.64999
107.95 -150.2 -247.64999
-107.95 -148.7 495.29999
107.95 -149.69998 495.29999
-215.90001 -148.7 495.29999
-215.90001 -149.69998 495.29999
107.95 -149.69998 -495.29999
-107.95 -148.7 -495.29999
-215.90001 -149.69998 -495.29999
-215.90001 -148.7 -495.29999
215.90001 148.7 247.64999
215.90001 149.69998 -247.64999
215.90001 148.20001 247.64999
215.90001 148.20001 -247.64999
-215.90001 149.69998 -247.64999
-215.90001 148.7 247.64999
-215.90001 148.20001 -247.64999
-215.90001 148.20001 247.64999
107.95 150.2 -247.64999
-107.95 150.2 247.64999
-215.90001 150.2 -247.64999
-215.90001 150.2 247.64999
-107.95 148.20001 247.64999
107.95 148.20001 -247.64999
-107.95 149.69998 495.29999
107.95 148.7 495.29999
-215.90001 149.69998 495.29999
-215.90001 148.7 495.29999
107.95 148.7 -495.29999
-107.95 149.69998 -495.29999
-215.90001 148.7 -495.29999
-215.90001 149.69998 -495.29999
215.90001 396.35001 247.64999
215.90001 397.35001 -247.64999
215.90001 395.85001 247.64999
215.90001 395.85001 -247.64999
-215.90001 397.35001 -247.64999
-215.90001 396.35001 247.64999
-215.90001 395.85001 -247.64999
-215.90001 395.85001 247.64999
107.95 397.85001 -247.64999
-107.95 397.85001 247.64999
-215.90001 397.85001 -247.64999
-215.90001 397.85001 247.64999
-107.95 395.85001 247.64999
107.95 395.85001 -247.64999
-107.95 397.35001 495.29999
107.95 396.35001 495.29999
-215.90001 397.35001 495.29999
-215.90001 396.35001 495.29999
107.95 396.35001 -495.29999
-107.95 397.35001 -495.29999
-215.90001 396.35001 -495.29999
-215.90001 397.35001 -495.29999
215.90001 -198.42499 0.5
215.90001 198.42499 -0.5
215.90001 -396.84998 0.5
215.90001 -396.84998 -0.5
-215.90001 198.42499 -0.5
-215.90001 -198.42499 0.5
-215.90001 -396.84998 -0.5
-215.90001 -396.84998 0.5
107.95 396.84998 -0.5
-107.95 396.84998 0.5
-215.90001 396.84998 -0.5
-215.90001 396.84998 0.5
-107.95 -396.84998 0.5
107.95 -396.84998 -0.5
-107.95 198.42499 1
107.95 -198.42499 1
-215.90001 198.42499 1
-215.90001 -198.42499 1
107.95 -198.42499 -1
-107.95 198.42499 -1
-215.90001 -198.42499 -1
-215.90001 198.42499 -1
215.90001 -198.42499 495.80002
215.90001 198.42499 494.79999
215.90001 -396.84998 495.80002
215.90001 -396.84998 494.79999
-215.90001 198.42499 494.79999
-215.90001 -198.42499 495.80002
-215.90001 -396.84998 494.79999
-215.90001 -396.84998 495.80002
107.95 396.84998 494.79999
-107.95 396.84998 495.80002
-215.90001 396.84998 494.79999
-215.90001 396.84998 495.80002
-107.95 -396.84998 495.80002
107.95 -396.84998 494.79999
-107.95 198.42499 496.30002
107.95 -198.42499 496.30002
-215.90001 198.42499 496.30002
-215.90001 -198.42499 496.30002
107.95 -198.42499 494.30002
-107.95 198.42499 494.30002
-215.90001 -198.42499 494.30002
-215.90001 198.42499 494.30002
215.90001 -198.42499 229.09999
215.90001 198.42499 228.10001
215.90001 -396.84998 229.09999
215.90001 -396.84998 228.10001
-215.90001 198.42499 228.10001
-215.90001 -198.42499 229.09999
-215.90001 -396.84998 228.10001
-215.90001 -396.84998 229.09999
107.95 396.84998 228.10001
-107.95 396.84998 229.09999
-215.90001 396.84998 228.10001
-215.90001 396.84998 229.09999
-107.95 -396.84998 229.09999
107.95 -396.84998 228.10001
-107.95 198.42499 229.59999
107.95 -198.42499 229.59999
-215.90001 198.42499 229.59999
-215.90001 -198.42499 229.59999
107.95 -198.42499 227.59999
-107.95 198.42499 227.59999
-215.90001 -198.42499 227.59999
-215.90001 198.42499 227.59999
215.90001 -198.42499 -228.10001
215.90001 198.42499 -229.09999
215.90001 -396.84998 -228.10001
215.90001 -396.84998 -229.09999
-215.90001 198.42499 -229.09999
-215.90001 -198.42499 -228.10001
-215.90001 -396.84998 -229.09999
-215.90001 -396.84998 -228.10001
107.95 396.84998 -229.09999
-107.95 396.84998 -228.10001
-215.90001 396.84998 -229.09999
-215.90001 396.84998 -228.10001
-107.95 -396.84998 -228.10001
107.95 -396.84998 -229.09999
-107.95 198.42499 -227.59999
107.95 -198.42499 -227.59999
-215.90001 198.42499 -227.59999
-215.90001 -198.42499 -227.59999
107.95 -198.42499 -229.59999
-107.95 198.42499 -229.59999
-215.90001 -198.42499 -229.59999
-215.90001 198.42499 -229.59999
215.90001 -198.42499 -494.79999
215.90001 198.42499 -495.80002
215.90001 -396.84998 -494.79999
215.90001 -396.84998 -495.80002
-215.90001 198.42499 -495.80002
-215.90001 -198.42499 -494.79999
-215.90001 -396.84998 -495.80002
-215.90001 -396.84998 -494.79999
107.95 396.84998 -495.80002
-107.95 396.84998 -494.79999
-215.90001 396.84998 -495.80002
-215.90001 396.84998 -494.79999
-107.95 -396.84998 -494.79999
107.95 -396.84998 -495.80002
-107.95 198.42499 -494.30002
107.95 -198.42499 -494.30002
-215.90001 198.42499 -494.30002
-215.90001 -198.42499 -494.30002
107.95 -198.42499 -496.30002
-107.95 198.42499 -496.30002
-215.90001 -198.42499 -496.30002
-215.90001 198.42499 -496.30002
216.90001 -198.42499 247.64999
216.90001 198.42499 -247.64999
216.90001 -396.84998 247.64999
216.90001 -396.84998 -247.64999
214.90001 198.42499 -247.64999
214.90001 -198.42499 247.64999
214.90001 -396.84998 -247.64999
214.90001 -396.84998 247.64999
216.39999 396.84998 -247.64999
215.40001 396.84998 247.64999
214.90001 396.84998 -247.64999
214.90001 396.84998 247.64999
215.40001 -396.84998 247.64999
216.39999 -396.84998 -247.64999
215.40001 198.42499 495.29999
216.39999 -198.42499 495.29999
214.90001 198.42499 495.29999
214.90001 -198.42499 495.29999
216.39999 -198.42499 -495.29999
215.40001 198.42499 -495.29999
214.90001 -198.42499 -495.29999
214.90001 198.42499 -495.29999
215.90001 -395.85001 -247.64999
215.90001 -395.85001 247.64999
215.90001 -396.35001 495.29999
215.90001 -397.35001 495.29999
215.90001 -397.35001 -495.29999
215.90001 -396.35001 -495.29999
-107.95 -395.85001 495.29999
107.95 -395.85001 495.29999
107.95 -395.85001 -495.29999
-107.95 -395.85001 -495.29999
107.95 -397.85001 495.29999
-107.95 -397.85001 495.29999
-107.95 -397.85001 -495.29999
107.95 -397.85001 -495.29999
215.90001 -148.20001 -247.64999
215.90001 -148.20001 247.64999
215.90001 -148.7 495.29999
215.90001 -149.69998 495.29999
215.90001 -149.69998 -495.29999
215.90001 -148.7 -495.29999
-107.95 -148.20001 495.29999
107.95 -148.20001 495.29999
107.95 -148.20001 -495.29999
-107.95 -148.20001 -495.29999
107.95 -150.2 495.29999
-107.95 -150.2 495.29999
-107.95 -150.2 -495.29999
107.95 -150.2 -495.29999
215.90001 150.2 -247.64999
215.90001 150.2 247.64999
215.90001 149.69998 495.29999
215.90001 148.7 495.29999
215.90001 148.7 -495.29999
215.90001 149.69998 -495.29999
-107.95 150.2 495.29999
107.95 150.2 495.29999
107.95 150.2 -495.29999
-107.95 150.2 -495.29999
107.95 148.20001 495.29999
-107.95 148.20001 495.29999
-107.95 148.20001 -495.29999
107.95 148.20001 -495.29999
215.90001 397.85001 -247.64999
215.90001 397.85001 247.64999
215.90001 397.35001 495.29999
215.90001 396.35001 495.29999
215.90001 396.35001 -495.29999
215.90001 397.35001 -495.29999
-107.95 397.85001 495.29999
107.95 397.85001 495.29999
107.95 397.85001 -495.29999
-107.95 397.85001 -495.29999
107.95 395.85001 495.29999
-107.95 395.85001 495.29999
-107.95 395.85001 -495.29999
107.95 395.85001 -495.29999
215.90001 396.84998 -0.5
215.90001 396.84998 0.5
215.90001 198.42499 1
215.90001 -198.42499 1
215.90001 -198.42499 -1
215.90001 198.42499 -1
-107.95 396.84998 1
107.95 396.84998 1
107.95 396.84998 -1
-107.95 396.84998 -1
107.95 -396.84998 1
-107.95 -396.84998 1
-107.95 -396.84998 -1
107.95 -396.84998 -1
215.90001 396.84998 494.79999
215.90001 396.84998 495.80002
215.90001 198.42499 496.30002
215.90001 -198.42499 496.30002
215.90001 -198.42499 494.30002
215.90001 198.42499 494.30002
-107.95 396.84998 496.30002
107.95 396.84998 496.30002
107.95 396.84998 494.30002
-107.95 396.84998 494.30002
107.95 -396.84998 496.30002
-107.95 -396.84998 496.30002
-107.95 -396.84998 494.30002
107.95 -396.84998 494.30002
215.90001 396.84998 228.10001
215.90001 396.84998 229.09999
215.90001 198.42499 229.59999
215.90001 -198.42499 229.59999
215.90001 -198.42499 227.59999
215.90001 198.42499 227.59999
-107.95 396.84998 229.59999
107.95 396.84998 229.59999
107.95 396.84998 227.59999
-107.95 396.84998 227.59999
107.95 -396.84998 229.59999
-107.95 -396.84998 229.59999
-107.95 -396.84998 227.59999
107.95 -396.84998 227.59999
215.90001 396.84998 -229.09999
215.90001 396.84998 -228.10001
215.90001 198.42499 -227.59999
215.90001 -198.42499 -227.59999
215.90001 -198.42499 -229.59999
215.90001 198.42499 -229.59999
-107.95 396.84998 -227.59999
107.95 396.84998 -227.59999
107.95 396.84998 -229.59999
-107.95 396.84998 -229.59999
107.95 -396.84998 -227.59999
-107.95 -396.84998 -227.59999
-107.95 -396.84998 -229.59999
107.95 -396.84998 -229.59999
215.90001 396.84998 -495.80002
215.90001 396.84998 -494.79999
215.90001 198.42499 -494.30002
215.90001 -198.42499 -494.30002
215.90001 -198.42499 -496.30002
215.90001 198.42499 -496.30002
-107.95 396.84998 -494.30002
107.95 396.84998 -494.30002
107.95 396.84998 -496.30002
-107.95 396.84998 -496.30002
107.95 -396.84998 -494.30002
-107.95 -396.84998 -494.30002
-107.95 -396.84998 -496.30002
107.95 -396.84998 -496.30002
216.90001 396.84998 -247.64999
216.90001 396.84998 247.64999
216.90001 198.42499 495.29999
216.90001 -198.42499 495.29999
216.90001 -198.42499 -495.29999
216.90001 198.42499 -495.29999
215.40001 396.84998 495.29999
216.39999 396.84998 495.29999
216.39999 396.84998 -495.29999
215.40001 396.84998 -495.29999
216.39999 -396.84998 495.29999
215.40001 -396.84998 495.29999
215.40001 -396.84998 -495.29999
216.39999 -396.84998 -495.29999
215.90001 -396.51666 -82.550003
215.90001 -397.68332 -165.09999
-215.90001 -397.01666 165.09999
-215.90001 -397.68332 82.550003
-35.98333 -395.85001 165.09999
-179.91669 -395.85001 82.550003
71.966667 -397.85001 -82.550003
-179.91669 -397.85001 -165.09999
71.966667 -397.01666 495.29999
-179.91669 -397.18332 495.29999
-35.98333 -396.51666 -495.29999
-179.91669 -396.68335 -495.29999
215.90001 -148.86667 -82.550003
215.90001 -150.03333 -165.09999
-215.90001 -149.36667 165.09999
-215.90001 -150.03333 82.550003
-35.98333 -148.20001 165.09999
-179.91669 -148.20001 82.550003
71.966667 -150.2 -82.550003
-179.91669 -150.2 -165.09999
71.966667 -149.36667 495.29999
-179.91669 -149.53333 495.29999
-35.98333 -148.86667 -495.29999
-179.91669 -149.03334 -495.29999
215.90001 149.53333 -82.550003
215.90001 148.36667 -165.09999
-215.90001 149.03334 165.09999
-215.90001 148.36667 82.550003
-35.98333 150.2 165.09999
-179.91669 150.2 82.550003
71.966667 148.20001 -82.550003
-179.91669 148.20001 -165.09999
71.966667 149.03334 495.29999
-179.91669 148.86667 495.29999
-35.98333 149.53333 -495.29999
-179.91669 149.36667 -495.29999
215.90001 397.18332 -82.550003
215.90001 396.01666 -165.09999
-215.90001 396.68335 165.09999
-215.90001 396.01666 82.550003
-35.98333 397.85001 165.09999
-179.91669 397.85001 82.550003
71.966667 395.85001 -82.550003
-179.91669 395.85001 -165.09999
71.966667 396.68335 495.29999
-179.91669 396.51666 495.29999
-35.98333 397.18332 -495.29999
-179.91669 397.01666 -495.29999
215.90001 132.28333 -0.16666667
215.90001 -330.70831 -0.33333337
-215.90001 -66.141663 0.33333337
-215.90001 -330.70831 0.16666667
-35.98333 396.84998 0.33333337
-179.91669 396.84998 0.16666667
71.966667 -396.84998 -0.16666667
-179.91669 -396.84998 -0.33333337
71.966667 -66.141663 1
-179.91669 -132.28333 1
-35.98333 132.28333 -1
-179.91669 66.141663 -1
215.90001 132.28333 495.13333
215.90001 -330.70831 494.96664
-215.90001 -66.141663 495.63333
-215.90001 -330.70831 495.46664
-35.98333 396.84998 495.63333
-179.91669 396.84998 495.46664
71.966667 -396.84998 495.13333
-179.91669 -396.84998 494.96664
71.966667 -66.141663 496.30002
-179.91669 -132.28333 496.30002
-35.98333 132.28333 494.30002
-179.91669 66.141663 494.30002
215.90001 132.28333 228.43332
215.90001 -330.70831 228.26666
-215.90001 -66.141663 228.93333
-215.90001 -330.70831 228.76666
-35.98333 396.84998 228.93333
-179.91669 396.84998 228.76666
71.966667 -396.84998 228.43332
-179.91669 -396.84998 228.26666
71.966667 -66.141663 229.59999
-179.91669 -132.28333 229.59999
-35.98333 132.28333 227.59999
-179.91669 66.141663 227.59999
215.90001 132.28333 -228.76666
215.90001 -330.70831 -228.93333
-215.90001 -66.141663 -228.26666
-215.90001 -330.70831 -228.43332
-35.98333 396.84998 -228.26666
-179.91669 396.84998 -228.43332
71.966667 -396.84998 -228.76666
-179.91669 -396.84998 -228.93333
71.966667 -66.141663 -227.59999
-179.91669 -132.28333 -227.59999
-35.98333 132.28333 -229.59999
-179.91669 66.141663 -229.59999
215.90001 132.28333 -495.46664
215.90001 -330.70831 -495.63333
-215.90001 -66.141663 -494.96664
-215.90001 -330.70831 -495.13333
-35.98333 396.84998 -494.96664
-179.91669 396.84998 -495.13333
71.966667 -396.84998 -495.46664
-179.91669 -396.84998 -495.63333
71.966667 -66.141663 -494.30002
-179.91669 -132.28333 -494.30002
-35.98333 132.28333 -496.30002
-179.91669 66.141663 -496.30002
216.90001 132.28333 -82.550003
216.90001 -330.70831 -165.09999
214.90001 -66.141663 165.09999
214.90001 -330.70831 82.550003
215.73334 396.84998 165.09999
215.06667 396.84998 82.550003
216.23334 -396.84998 -82.550003
215.06667 -396.84998 -165.09999
216.23334 -66.141663 495.29999
215.06667 -132.28333 495.29999
215.73334 132.28333 -495.29999
215.06667 66.141663 -495.29999
215.90001 -396.01666 165.09999
215.90001 -397.01663 412.75
215.90001 -396.68335 -412.75
215.90001 -397.18332 82.550003
-215.90001 -396.51669 412.75
-215.90001 -396.01666 -82.550003
-215.90001 -396.68335 -165.09999
-215.90001 -397.18332 -412.75
71.966667 -395.85001 412.75
179.91669 -395.85001 -82.550003
35.98333 -395.85001 -165.09999
-71.966667 -395.85001 -412.75
179.91669 -397.85001 165.09999
-35.98333 -397.85001 412.75
35.98333 -397.85001 -412.75
-71.966667 -397.85001 82.550003
179.91669 -396.51669 495.29999
-35.98333 -396.01666 495.29999
35.98333 -397.68332 495.29999
-71.966667 -396.68335 495.29999
71.966667 -396.01666 -495.29999
179.91669 -397.01663 -495.29999
35.98333 -397.18332 -495.29999
-71.966667 -397.68332 -495.29999
215.90001 -148.36667 165.09999
215.90001 -149.36667 412.75
215.90001 -149.03334 -412.75
215.90001 -149.53333 82.550003
-215.90001 -148.86667 412.75
-215.90001 -148.36667 -82.550003
-215.90001 -149.03334 -165.09999
-215.90001 -149.53333 -412.75
71.966667 -148.20001 412.75
179.91669 -148.20001 -82.550003
35.98333 -148.20001 -165.09999
-71.966667 -148.20001 -412.75
179.91669 -150.2 165.09999
-35.98333 -150.2 412.75
35.98333 -150.2 -412.75
-71.966667 -150.2 82.550003
179.91669 -148.86667 495.29999
-35.98333 -148.36667 495.29999
35.98333 -150.03333 495.29999
-71.966667 -149.03334 495.29999
71.966667 -148.36667 -495.29999
179.91669 -149.36667 -495.29999
35.98333 -149.53333 -495.29999
-71.966667 -150.03333 -495.29999
215.90001 150.03333 165.09999
215.90001 149.03334 412.75
215.90001 149.36667 -412.75
215.90001 148.86667 82.550003
-215.90001 149.53333 412.75
-215.90001 150.03333 -82.550003
-215.90001 149.36667 -165.09999
-215.90001 148.86667 -412.75
71.966667 150.2 412.75
179.91669 150.2 -82.550003
35.98333 150.2 -165.09999
-71.966667 150.2 -412.75
179.91669 148.20001 165.09999
-35.98333 148.20001 412.75
35.98333 148.20001 -412.75
-71.966667 148.20001 82.550003
179.91669 149.53333 495.29999
-35.98333 150.03333 495.29999
35.98333 148.36667 495.29999
-71.966667 149.36667 495.29999
71.966667 150.03333 -495.29999
179.91669 149.03334 -495.29999
35.98333 148.86667 -495.29999
-71.966667 148.36667 -495.29999
215.90001 397.68332 165.09999
215.90001 396.68335 412.75
215.90001 397.01663 -412.75
215.90001 396.51666 82.550003
-215.90001 397.18332 412.75
-215.90001 397.68332 -82.550003
-215.90001 397.01663 -165.09999
-215.90001 396.51666 -412.75
71.966667 397.85001 412.75
179.91669 397.85001 -82.550003
35.98333 397.85001 -165.09999
-71.966667 397.85001 -412.75
179.91669 395.85001 165.09999
-35.98333 395.85001 412.75
35.98333 395.85001 -412.75
-71.966667 395.85001 82.550003
179.91669 397.18332 495.29999
-35.98333 397.68332 495.29999
35.98333 396.01666 495.29999
-71.966667 397.01663 495.29999
71.966667 397.68332 -495.29999
179.91669 396.68335 -495.29999
35.98333 396.51669 -495.29999
-71.966667 396.01666 -495.29999
215.90001 330.70831 0.33333337
215.90001 -66.141663 0.83333337
215.90001 66.141663 -0.83333337
215.90001 -132.28333 0.16666667
-215.90001 132.28333 0.83333337
-215.90001 330.70831 -0.16666667
-215.90001 66.141663 -0.33333337
-215.90001 -132.28333 -0.83333337
71.966667 396.84998 0.83333337
179.91669 396.84998 -0.16666667
35.98333 396.84998 -0.33333337
-71.966667 396.84998 -0.83333337
179.91669 -396.84998 0.33333337
-35.98333 -396.84998 0.83333337
35.98333 -396.84998 -0.83333337
-71.966667 -396.84998 0.16666667
179.91669 132.28333 1
-35.98333 330.70831 1
35.98333 -330.70831 1
-71.966667 66.141663 1
71.966667 330.70831 -1
179.91669 -66.141663 -1
35.98333 -132.28333 -1
-71.966667 -330.70831 -1
215.90001 330.70831 495.63333
215.90001 -66.141663 496.13333
215.90001 66.141663 494.46667
215.90001 -132.28333 495.46664
-215.90001 132.28333 496.13333
-215.90001 330.70831 495.13333
-215.90001 66.141663 494.96664
-215.90001 -132.28333 494.46667
71.966667 396.84998 496.13333
179.91669 396.84998 495.13333
35.98333 396.84998 494.96664
-71.966667 396.84998 494.46667
179.91669 -396.84998 495.63333
-35.98333 -396.84998 496.13333
35.98333 -396.84998 494.46667
-71.966667 -396.84998 495.46664
179.91669 132.28333 496.30002
-35.98333 330.70831 496.30002
35.98333 -330.70831 496.30002
-71.966667 66.141663 496.30002
71.966667 330.70831 494.30002
179.91669 -66.141663 494.30002
35.98333 -132.28333 494.30002
-71.966667 -330.70831 494.30002
215.90001 330.70831 228.93333
215.90001 -66.141663 229.43333
215.90001 66.141663 227.76666
215.90001 -132.28333 228.76666
-215.90001 132.28333 229.43333
-215.90001 330.70831 228.43332
-215.90001 66.141663 228.26666
-215.90001 -132.28333 227.76666
71.966667 396.84998 229.43333
179.91669 396.84998 228.43332
35.98333 396.84998 228.26666
-71.966667 396.84998 227.76666
179.91669 -396.84998 228.93333
-35.98333 -396.84998 229.43333
35.98333 -396.84998 227.76666
-71.966667 -396.84998 228.76666
179.91669 132.28333 229.59999
-35.98333 330.70831 229.59999
35.98333 -330.70831 229.59999
-71.966667 66.141663 229.59999
71.966667 330.70831 227.59999
179.91669 -66.141663 227.59999
35.98333 -132.28333 227.59999
-71.966667 -330.70831 227.59999
215.90001 330.70831 -228.26666
215.90001 -66.141663 -227.76666
215.90001 66.141663 -229.43333
215.90001 -132.28333 -228.43332
-215.90001 132.28333 -227.76666
-215.90001 330.70831 -228.76666
-215.90001 66.141663 -228.93333
-215.90001 -132.28333 -229.43333
71.966667 396.84998 -227.76666
179.91669 396.84998 -228.76666
35.98333 396.84998 -228.93333
-71.966667 396.84998 -229.43333
179.91669 -396.84998 -228.26666
-35.98333 -396.84998 -227.76666
35.98333 -396.84998 -229.43333
-71.966667 -396.84998 -228.43332
179.91669 132.28333 -227.59999
-35.98333 330.70831 -227.59999
35.98333 -330.70831 -227.59999
-71.966667 66.141663 -227.59999
71.966667 330.70831 -229.59999
179.91669 -66.141663 -229.59999
35.98333 -132.28333 -229.59999
-71.966667 -330.70831 -229.59999
215.90001 330.70831 -494.96664
215.90001 -66.141663 -494.46667
215.90001 66.141663 -496.13333
215.90001 -132.28333 -495.13333
-215.90001 132.28333 -494.46667
-215.90001 330.70831 -495.46664
-215.90001 66.141663 -495.63333
-215.90001 -132.28333 -496.13333
71.966667 396.84998 -494.46667
179.91669 396.84998 -495.46664
35.98333 396.84998 -495.63333
-71.966667 396.84998 -496.13333
179.91669 -396.84998 -494.96664
-35.98333 -396.84998 -494.46667
35.98333 -396.84998 -496.13333
-71.966667 -396.84998 -495.13333
179.91669 132.28333 -494.30002
-35.98333 330.70831 -494.30002
35.98333 -330.70831 -494.30002
-71.966667 66.141663 -494.30002
71.966667 330.70831 -496.30002
179.91669 -66.141663 -496.30002
35.98333 -132.28333 -496.30002
-71.966667 -330.70831 -496.30002
216.90001 330.70831 165.09999
216.90001 -66.141663 412.75
216.90001 66.141663 -412.75
216.90001 -132.28333 82.550003
214.90001 132.28333 412.75
214.90001 330.70831 -82.550003
214.90001 66.141663 -165.09999
214.90001 -132.28333 -412.75
216.23334 396.84998 412.75
216.73334 396.84998 -82.550003
216.06668 396.84998 -165.09999
215.56667 396.84998 -412.75
216.73334 -396.84998 165.09999
215.73334 -396.84998 412.75
216.06668 -396.84998 -412.75
215.56667 -396.84998 82.550003
216.73334 132.28333 495.29999
215.73334 330.70831 495.29999
216.06668 -330.70831 495.29999
215.56667 66.141663 495.29999
216.23334 330.70831 -495.29999
216.73334 -66.141663 -495.29999
216.06668 -132.28333 -495.29999
215.56667 -330.70831 -495.29999
215.90001 -397.01663 165.09999
215.90001 -396.68335 -165.09999
215.90001 -397.68332 82.550003
179.91669 -397.85001 -82.550003
-215.90001 -396.51669 -82.550003
-215.90001 -397.18332 82.550003
-215.90001 -397.68332 -165.09999
-179.91669 -397.85001 82.550003
71.966667 -395.85001 -82.550003
-71.966667 -395.85001 82.550003
-179.91669 -395.85001 -165.09999
-215.90001 -396.01666 165.09999
-35.98333 -397.85001 165.09999
35.98333 -397.85001 -165.09999
-35.98333 -396.51669 495.29999
35.98333 -397.18332 495.29999
-179.91669 -396.68335 495.29999
-215.90001 -397.01666 412.75
71.966667 -397.01663 -495.29999
-71.966667 -396.68335 -495.29999
-179.91669 -397.18332 -495.29999
-215.90001 -396.68335 -412.75
215.90001 -149.36667 165.09999
215.90001 -149.03334 -165.09999
215.90001 -150.03333 82.550003
179.91669 -150.2 -82.550003
-215.90001 -148.86667 -82.550003
-215.90001 -149.53333 82.550003
-215.90001 -150.03333 -165.09999
-179.91669 -150.2 82.550003
71.966667 -148.20001 -82.550003
-71.966667 -148.20001 82.550003
-179.91669 -148.20001 -165.09999
-215.90001 -148.36667 165.09999
-35.98333 -150.2 165.09999
35.98333 -150.2 -165.09999
-35.98333 -148.86667 495.29999
35.98333 -149.53333 495.29999
-179.91669 -149.03334 495.29999
-215.90001 -149.36667 412.75
71.966667 -149.36667 -495.29999
-71.966667 -149.03334 -495.29999
-179.91669 -149.53333 -495.29999
-215.90001 -149.03334 -412.75
215.90001 149.03334 165.09999
215.90001 149.36667 -165.09999
215.90001 148.36667 82.550003
179.91669 148.20001 -82.550003
-215.90001 149.53333 -82.550003
-215.90001 148.86667 82.550003
-215.90001 148.36667 -165.09999
-179.91669 148.20001 82.550003
71.966667 150.2 -82.550003
-71.966667 150.2 82.550003
-179.91669 150.2 -165.09999
-215.90001 150.03333 165.09999
-35.98333 148.20001 165.09999
35.98333 148.20001 -165.09999
-35.98333 149.53333 495.29999
35.98333 148.86667 495.29999
-179.91669 149.36667 495.29999
-215.90001 149.03334 412.75
71.966667 149.03334 -495.29999
-71.966667 149.36667 -495.29999
-179.91669 148.86667 -495.29999
-215.90001 149.36667 -412.75
215.90001 396.68335 165.09999
215.90001 397.01663 -165.09999
215.90001 396.01666 82.550003
179.91669 395.85001 -82.550003
-215.90001 397.18332 -82.550003
-215.90001 396.51666 82.550003
-215.90001 396.01666 -165.09999
-179.91669 395.85001 82.550003
71.966667 397.85001 -82.550003
-71.966667 397.85001 82.550003
-179.91669 397.85001 -165.09999
-215.90001 397.68332 165.09999
-35.98333 395.85001 165.09999
35.98333 395.85001 -165.09999
-35.98333 397.18332 495.29999
35.98333 396.51666 495.29999
-179.91669 397.01663 495.29999
-215.90001 396.68335 412.75
71.966667 396.68335 -495.29999
-71.966667 397.01666 -495.29999
-179.91669 396.51669 -495.29999
-215.90001 397.01663 -412.75
215.90001 -66.141663 0.33333337
215.90001 66.141663 -0.33333337
215.90001 -330.70831 0.16666667
179.91669 -396.84998 -0.16666667
-215.90001 132.28333 -0.16666667
-215.90001 -132.28333 0.16666667
-215.90001 -330.70831 -0.33333337
-179.91669 -396.84998 0.16666667
71.966667 396.84998 -0.16666667
-71.966667 396.84998 0.16666667
-179.91669 396.84998 -0.33333337
-215.90001 330.70831 0.33333337
-35.98333 -396.84998 0.33333337
35.98333 -396.84998 -0.33333337
-35.98333 132.28333 1
35.98333 -132.28333 1
-179.91669 66.141663 1
-215.90001 -66.141663 0.83333337
71.966667 -66.141663 -1
-71.966667 66.141663 -1
-179.91669 -132.28333 -1
-215.90001 66.141663 -0.83333337
215.90001 -66.141663 495.63333
215.90001 66.141663 494.96664
215.90001 -330.70831 495.46664
179.91669 -396.84998 495.13333
-215.90001 132.28333 495.13333
-215.90001 -132.28333 495.46664
-215.90001 -330.70831 494.96664
-179.91669 -396.84998 495.46664
71.966667 396.84998 495.13333
-71.966667 396.84998 495.46664
-179.91669 396.84998 494.96664
-215.90001 330.70831 495.63333
-35.98333 -396.84998 495.63333
35.98333 -396.84998 494.96664
-35.98333 132.28333 496.30002
35.98333 -132.28333 496.30002
-179.91669 66.141663 496.30002
-215.90001 -66.141663 496.13333
71.966667 -66.141663 494.30002
-71.966667 66.141663 494.30002
-179.91669 -132.28333 494.30002
-215.90001 66.141663 494.46667
215.90001 -66.141663 228.93333
215.90001 66.141663 228.26666
215.90001 -330.70831 228.76666
179.91669 -396.84998 228.43332
-215.90001 132.28333 228.43332
-215.90001 -132.28333 228.76666
-215.90001 -330.70831 228.26666
-179.91669 -396.84998 228.76666
71.966667 396.84998 228.43332
-71.966667 396.84998 228.76666
-179.91669 396.84998 228.26666
-215.90001 330.70831 228.93333
-35.98333 -396.84998 228.93333
35.98333 -396.84998 228.26666
-35.98333 132.28333 229.59999
35.98333 -132.28333 229.59999
-179.91669 66.141663 229.59999
-215.90001 -66.141663 229.43333
71.966667 -66.141663 227.59999
-71.966667 66.141663 227.59999
-179.91669 -132.28333 227.59999
-215.90001 66.141663 227.76666
215.90001 -66.141663 -228.26666
215.90001 66.141663 -228.93333
215.90001 -330.70831 -228.43332
179.91669 -396.84998 -228.76666
-215.90001 132.28333 -228.76666
-215.90001 -132.28333 -228.43332
-215.90001 -330.70831 -228.93333
-179.91669 -396.84998 -228.43332
71.966667 396.84998 -228.76666
-71.966667 396.84998 -228.43332
-179.91669 396.84998 -228.93333
-215.90001 330.70831 -228.26666
-35.98333 -396.84998 -228.26666
35.98333 -396.84998 -228.93333
-35.98333 132.28333 -227.59999
35.98333 -132.28333 -227.59999
-179.91669 66.141663 -227.59999
-215.90001 -66.141663 -227.76666
71.966667 -66.141663 -229.59999
-71.966667 66.141663 -229.59999
-179.91669 -132.28333 -229.59999
-215.90001 66.141663 -229.43333
215.90001 -66.141663 -494.96664
215.90001 66.141663 -495.63333
215.90001 -330.70831 -495.13333
179.91669 -396.84998 -495.46664
-215.90001 132.28333 -495.46664
-215.90001 -132.28333 -495.13333
-215.90001 -330.70831 -495.63333
-179.91669 -396.84998 -495.13333
71.966667 396.84998 -495.46664
-71.966667 396.84998 -495.13333
-179.91669 396.84998 -495.63333
-215.90001 330.70831 -494.96664
-35.98333 -396.84998 -494.96664
35.98333 -396.84998 -495.63333
-35.98333 132.28333 -494.30002
35.98333 -132.28333 -494.30002
-179.91669 66.141663 -494.30002
-215.90001 -66.141663 -494.46667
71.966667 -66.141663 -496.30002
-71.966667 66.141663 -496.30002
-179.91669 -132.28333 -496.30002
-215.90001 66.141663 -496.13333
216.90001 -66.141663 165.09999
216.90001 66.141663 -165.09999
216.90001 -330.70831 82.550003
216.73334 -396.84998 -82.550003
214.90001 132.28333 -82.550003
214.90001 -132.28333 82.550003
214.90001 -330.70831 -165.09999
215.06667 -396.84998 82.550003
216.23334 396.84998 -82.550003
215.56667 396.84998 82.550003
215.06667 396.84998 -165.09999
214.90001 330.70831 165.09999
215.73334 -396.84998 165.09999
216.06668 -396.84998 -165.09999
215.73334 132.28333 495.29999
216.06668 -132.28333 495.29999
215.06667 66.141663 495.29999
214.90001 -66.141663 412.75
216.23334 -66.141663 -495.29999
215.56667 66.141663 -495.29999
215.06667 -132.28333 -495.29999
214.90001 66.141663 -412.75
215.90001 -396.01666 -82.550003
179.91669 -395.85001 165.09999
215.90001 -396.51666 412.75
179.91669 -397.01666 495.29999
215.90001 -397.18332 -412.75
179.91669 -396.51666 -495.29999
-35.98333 -395.85001 412.75
71.966667 -396.01666 495.29999
35.98333 -395.85001 -412.75
-35.98333 -396.01666 -495.29999
71.966667 -397.85001 412.75
-71.966667 -397.68332 495.29999
-71.966667 -397.85001 -412.75
35.98333 -397.68332 -495.29999
215.90001 -148.36667 -82.550003
179.91669 -148.20001 165.09999
215.90001 -148.86667 412.75
179.91669 -149.36667 495.29999
215.90001 -149.53333 -412.75
179.91669 -148.86667 -495.29999
-35.98333 -148.20001 412.75
71.966667 -148.36667 495.29999
35.98333 -148.20001 -412.75
-35.98333 -148.36667 -495.29999
71.966667 -150.2 412.75
-71.966667 -150.03333 495.29999
-71.966667 -150.2 -412.75
35.98333 -150.03333 -495.29999
215.90001 150.03333 -82.550003
179.91669 150.2 165.09999
215.90001 149.53333 412.75
179.91669 149.03334 495.29999
215.90001 148.86667 -412.75
179.91669 149.53333 -495.29999
-35.98333 150.2 412.75
71.966667 150.03333 495.29999
35.98333 150.2 -412.75
-35.98333 150.03333 -495.29999
71.966667 148.20001 412.75
-71.966667 148.36667 495.29999
-71.966667 148.20001 -412.75
35.98333 148.36667 -495.29999
215.90001 397.68332 -82.550003
179.91669 397.85001 165.09999
215.90001 397.18332 412.75
179.91669 396.68335 495.29999
215.90001 396.51666 -412.75
179.91669 397.18332 -495.29999
-35.98333 397.85001 412.75
71.966667 397.68332 495.29999
35.98333 397.85001 -412.75
-35.98333 397.68332 -495.29999
71.966667 395.85001 412.75
-71.966667 396.01666 495.29999
-71.966667 395.85001 -412.75
35.98333 396.01666 -495.29999
215.90001 330.70831 -0.16666667
179.91669 396.84998 0.33333337
215.90001 132.28333 0.83333337
179.91669 -66.141663 1
215.90001 -132.28333 -0.83333337
179.91669 132.28333 -1
-35.98333 396.84998 0.83333337
71.966667 330.70831 1
35.98333 396.84998 -0.83333337
-35.98333 330.70831 -1
71.966667 -396.84998 0.83333337
-71.966667 -330.70831 1
-71.966667 -396.84998 -0.83333337
35.98333 -330.70831 -1
215.90001 330.70831 495.13333
179.91669 396.84998 495.63333
215.90001 132.28333 496.13333
179.91669 -66.141663 496.30002
215.90001 -132.28333 494.46667
179.91669 132.28333 494.30002
-35.98333 396.84998 496.13333
71.966667 330.70831 496.30002
35.98333 396.84998 494.46667
-35.98333 330.70831 494.30002
71.966667 -396.84998 496.13333
-71.966667 -330.70831 496.30002
-71.966667 -396.84998 494.46667
35.98333 -330.70831 494.30002
215.90001 330.70831 228.43332
179.91669 396.84998 228.93333
215.90001 132.28333 229.43333
179.91669 -66.141663 229.59999
215.90001 -132.28333 227.76666
179.91669 132.28333 227.59999
-35.98333 396.84998 229.43333
71.966667 330.70831 229.59999
35.98333 396.84998 227.76666
-35.98333 330.70831 227.59999
71.966667 -396.84998 229.43333
-71.966667 -330.70831 229.59999
-71.966667 -396.84998 227.76666
35.98333 -330.70831 227.59999
215.90001 330.70831 -228.76666
179.91669 396.84998 -228.26666
215.90001 132.28333 -227.76666
179.91669 -66.141663 -227.59999
215.90001 -132.28333 -229.43333
179.91669 132.28333 -229.59999
-35.98333 396.84998 -227.76666
71.966667 330.70831 -227.59999
35.98333 396.84998 -229.43333
-35.98333 330.70831 -229.59999
71.966667 -396.84998 -227.76666
-71.966667 -330.70831 -227.59999
-71.966667 -396.84998 -229.43333
35.98333 -330.70831 -229.59999
215.90001 330.70831 -495.46664
179.91669 396.84998 -494.96664
215.90001 132.28333 -494.46667
179.91669 -66.141663 -494.30002
215.90001 -132.28333 -496.13333
179.91669 132.28333 -496.30002
-35.98333 396.84998 -494.46667
71.966667 330.70831 -494.30002
35.98333 396.84998 -496.13333
-35.98333 330.70831 -496.30002
71.966667 -396.84998 -494.46667
-71.966667 -330.70831 -494.30002
-71.966667 -396.84998 -496.13333
35.98333 -330.70831 -496.30002
216.90001 330.70831 -82.550003
216.73334 396.84998 165.09999
216.90001 132.28333 412.75
216.73334 -66.141663 495.29999
216.90001 -132.28333 -412.75
216.73334 132.28333 -495.29999
215.73334 396.84998 412.75
216.23334 330.70831 495.29999
216.06668 396.84998 -412.75
215.73334 330.70831 -495.29999
216.23334 -396.84998 412.75
215.56667 -330.70831 495.29999
215.56667 -396.84998 -412.75
216.06668 -330.70831 -495.29999
215.90001 -396.01666 -330.20001
215.90001 -396.34998 -7.4505806e-06
215.90001 -397.68332 -412.75
215.90001 -397.35001 -247.64999
-215.90001 -397.51666 412.75
-215.90001 -396.85001 247.64999
-215.90001 -397.68332 330.20001
-215.90001 -397.35001 7.4505806e-06
-143.93332 -395.85001 412.75
3.7252903e-06 -395.85001 247.64999
-179.91669 -395.85001 330.20001
-107.95 -395.85001 7.4505806e-06
179.91669 -397.85001 -330.20001
107.95 -397.85001 -7.4505806e-06
-179.91669 -397.85001 -412.75
-107.95 -397.85001 -247.64999
179.91669 -397.51666 495.29999
107.95 -396.85001 495.29999
-179.91669 -397.68332 495.29999
-107.95 -397.35001 495.29999
-143.93332 -396.01666 -495.29999
3.7252903e-06 -396.34998 -495.29999
