# .PCD v0.7 - Point Cloud Data file format
VERSION 0.7
FIELDS x y z
SIZE 4 4 4
TYPE F F F
COUNT 1 1 1
WIDTH 80
HEIGHT 1
VIEWPOINT 0 0 0 0 0.5 0 0
POINTS 80
DATA ascii
0.2159 -0.39585 0.49529999
0.2159 -0.39585 -0.49529999
0.2159 -0.39785001 0.49529999
0.2159 -0.39785001 -0.49529999
-0.2159 -0.39585 0.49529999
-0.2159 -0.39585 -0.49529999
-0.2159 -0.39785001 0.49529999
-0.2159 -0.39785001 -0.49529999
0.2159 -0.14820001 0.49529999
0.2159 -0.14820001 -0.49529999
0.2159 -0.15019999 0.49529999
0.2159 -0.15019999 -0.49529999
-0.2159 -0.14820001 0.49529999
-0.2159 -0.14820001 -0.49529999
-0.2159 -0.15019999 0.49529999
-0.2159 -0.15019999 -0.49529999
0.2159 0.15019999 0.49529999
0.2159 0.15019999 -0.49529999
0.2159 0.14820001 0.49529999
0.2159 0.14820001 -0.49529999
-0.2159 0.15019999 0.49529999
-0.2159 0.15019999 -0.49529999
-0.2159 0.14820001 0.49529999
-0.2159 0.14820001 -0.49529999
0.2159 0.39785001 0.49529999
0.2159 0.39785001 -0.49529999
0.2159 0.39585 0.49529999
0.2159 0.39585 -0.49529999
-0.2159 0.39785001 0.49529999
-0.2159 0.39785001 -0.49529999
-0.2159 0.39585 0.49529999
-0.2159 0.39585 -0.49529999
0.2159 0.39684999 0.001
0.2159 0.39684999 -0.001
0.2159 -0.39684999 0.001
0.2159 -0.39684999 -0.001
-0.2159 0.39684999 0.001
-0.2159 0.39684999 -0.001
-0.2159 -0.39684999 0.001
-0.2159 -0.39684999 -0.001
0.2159 0.39684999 0.49630001
0.2159 0.39684999 0.49430001
0.2159 -0.39684999 0.49630001
0.2159 -0.39684999 0.49430001
-0.2159 0.39684999 0.49630001
-0.2159 0.39684999 0.49430001
-0.2159 -0.39684999 0.49630001
-0.2159 -0.39684999 0.49430001
0.2159 0.39684999 0.2296
0.2159 0.39684999 0.22759999
0.2159 -0.39684999 0.2296
0.2159 -0.39684999 0.22759999
-0.2159 0.39684999 0.2296
-0.2159 0.39684999 0.22759999
-0.2159 -0.39684999 0.2296
-0.2159 -0.39684999 0.22759999
0.2159 0.39684999 -0.22759999
0.2159 0.39684999 -0.2296
0.2159 -0.39684999 -0.22759999
0.2159 -0.39684999 -0.2296
-0.2159 0.39684999 -0.22759999
-0.2159 0.39684999 -0.2296
-0.2159 -0.39684999 -0.22759999
-0.2159 -0.39684999 -0.2296
0.2159 0.39684999 -0.49430001
0.2159 0.39684999 -0.49630001
0.2159 -0.39684999 -0.49430001
0.2159 -0.39684999 -0.49630001
-0.2159 0.39684999 -0.49430001
-0.2159 0.39684999 -0.49630001
-0.2159 -0.39684999 -0.49430001
-0.2159 -0.39684999 -0.49630001
0.21690001 0.39684999 0.49529999
0.21690001 0.39684999 -0.49529999
0.21690001 -0.39684999 0.49529999
0.21690001 -0.39684999 -0.49529999
0.2149 0.39684999 0.49529999
0.2149 0.39684999 -0.49529999
0.2149 -0.39684999 0.49529999
0.2149 -0.39684999 -0.49529999
